ncols        147
nrows        34
xllcorner    3448500.33127
yllcorner    5349100.16733
cellsize     1000.000000000000
NODATA_value  -9999
675.3021240234375 705.56292724609375 863.37017822265625 745.9296875 765.45294189453125 602.931396484375 540.4954833984375 730.83160400390625 817.66326904296875 773.23748779296875 736.75738525390625 776.917236328125 735.033447265625 661.684814453125 668.3214111328125 620.73980712890625 587.12017822265625 608.48126220703125 600.888916015625 530.38323974609375 546.86297607421875 534.267578125 517.4410400390625 527.903076171875 587.17913818359375 574.81689453125 540.25341796875 458.54876708984375 504.674591064453125 539.3372802734375 465.43310546875 452.86395263671875 573.5975341796875 594.06011962890625 578.85546875 573.5555419921875 565.73638916015625 539.917236328125 504.491485595703125 473.0765380859375 423.41497802734375 409.154205322265625 418.512481689453125 427.19281005859375 437.495452880859375 524.54986572265625 534.737548828125 528.20184326171875 518.829345703125 502.705780029296875 476.272674560546875 511.89794921875 490.846923828125 484.019287109375 459.56793212890625 448.203521728515625 459.28118896484375 487.250579833984375 486.542510986328125 499.995452880859375 470.233001708984375 434.209197998046875 437.4058837890625 425.445587158203125 419.87017822265625 403.03485107421875 397.19049072265625 355.016448974609375 314.709197998046875 317.266998291015625 361.650787353515625 365.498870849609375 376.908172607421875 358.608856201171875 354.763031005859375 396.542510986328125 360.483154296875 405.92742919921875 362.483001708984375 406.613372802734375 442.600921630859375 454.701812744140625 434.4251708984375 433.01983642578125 416.735260009765625 557.05047607421875 594.67913818359375 543.430908203125 741.62359619140625 738.32763671875 598.01873779296875 549.7386474609375 471.26190185546875 511.93310546875 594.23358154296875 743.53289794921875 712.50738525390625 748.087890625 722.786865234375 579.88720703125 564.18536376953125 562.8021240234375 575.68988037109375 586.39398193359375 716.4410400390625 741.3917236328125 744.7261962890625 725.1292724609375 710.28460693359375 694.85308837890625 676.5283203125 668.25341796875 645.46881103515625 628.34014892578125 611.38775634765625 592.79931640625 614.1524658203125 630.888916015625 656.03173828125 657.97845458984375 677.308349609375 653.62701416015625 631.23529052734375 640.2369384765625 659.92913818359375 612.7630615234375 593.2930908203125 580.31915283203125 574.96771240234375 564.58221435546875 561.42462158203125 549.13006591796875 523.18988037109375 535.25341796875 526.7913818359375 535.03118896484375 528.70465087890625 524.51416015625 526.12530517578125 521.272705078125 484.463714599609375 496.616790771484375 503.011627197265625 502.78912353515625 475.943878173828125 438.439910888671875 457.485260009765625
707.82763671875 814.16668701171875 916.46484375 856.05157470703125 754.4058837890625 690.74884033203125 531.9127197265625 660.09014892578125 809.248291015625 758.91290283203125 689.5272216796875 763.93194580078125 735.8582763671875 667.69384765625 599.53399658203125 618.0589599609375 650.0220947265625 632.030029296875 602.6627197265625 560.27606201171875 575.96051025390625 578.963134765625 557.3389892578125 529.20977783203125 598.35150146484375 572.96600341796875 561.4393310546875 506.1944580078125 462.449554443359375 546.5130615234375 437.752838134765625 536.162109375 586.09637451171875 591.0906982421875 573.04815673828125 563.332763671875 551.8197021484375 535.72503662109375 514.96826171875 486.57257080078125 442.708038330078125 397.09808349609375 392.62640380859375 396.157958984375 406.22845458984375 422.617340087890625 440.532318115234375 438.5810546875 450.0941162109375 505.203521728515625 523.75909423828125 527.74603271484375 529.4971923828125 462.4586181640625 483.18408203125 440.174591064453125 425.448974609375 461.920623779296875 470.41326904296875 483.091278076171875 464.280059814453125 436.625274658203125 400.073699951171875 412.116790771484375 404.35260009765625 409.051116943359375 371.41552734375 345.175750732421875 339.187652587890625 361.357147216796875 321.198974609375 343.114501953125 360.540802001953125 395.78741455078125 380.928558349609375 403.11224365234375 424.0528564453125 419.76361083984375 389.1575927734375 407.416656494140625 430.948974609375 495.6065673828125 573.6417236328125 554.146240234375 446.73468017578125 493.727325439453125 560.01983642578125 668.8135986328125 748.74945068359375 725.6751708984375 738.6876220703125 671.396240234375 521.4541015625 595.4727783203125 703.5714111328125 750.3475341796875 736.96826171875 667.56689453125 640.73052978515625 672.81121826171875 704.11676025390625 637.15020751953125 753.1116943359375 733.8106689453125 731.301025390625 723.54193115234375 738.09014892578125 711.12359619140625 703.0458984375 684.6649169921875 684.086181640625 667.713134765625 669.982421875 668.08221435546875 622.72503662109375 591.58331298828125 598.34918212890625 626.82257080078125 637.02099609375 653.90081787109375 665.725341796875 662.846923828125 650.4013671875 674.7772216796875 636.5623779296875 575.96142578125 567.0289306640625 576.0958251953125 575.09979248046875 580.21429443359375 563.498291015625 558.14404296875 542.755126953125 522.2579345703125 527.36676025390625 532.63775634765625 520.39569091796875 520.70745849609375 504.489227294921875 492.5731201171875 477.240936279296875 512.7471923828125 518.12255859375 509.649078369140625 488.770416259765625 453.97845458984375 437.39739990234375
897.34124755859375 834.1337890625 850.611083984375 885.49090576171875 794.02667236328125 715.56915283203125 534.84918212890625 618.93084716796875 795.4716796875 790.90594482421875 676.4478759765625 738.42401123046875 750.26983642578125 682.86737060546875 609.46600341796875 687.24432373046875 665.85150146484375 648.19671630859375 622.8231201171875 579.2296142578125 582.6910400390625 583.8055419921875 557.75054931640625 560.30841064453125 594.487548828125 588.24261474609375 576.11279296875 527.35205078125 443.6593017578125 498.2930908203125 430.267578125 536.554443359375 584.3896484375 578.49151611328125 576.09808349609375 551.399658203125 540.9302978515625 518.1893310546875 496.00567626953125 480.23809814453125 447.642303466796875 406.3741455078125 389.778900146484375 383.685821533203125 390.721099853515625 404.024383544921875 417.028350830078125 399.68310546875 404.34014892578125 492.4569091796875 487.29705810546875 490.328216552734375 487.68707275390625 455.994903564453125 473.44830322265625 417.075408935546875 421.070281982421875 438.197845458984375 456.367919921875 473.890594482421875 455.47052001953125 443.219940185546875 396.589569091796875 373.603179931640625 408.5941162109375 410.8734130859375 361.638336181640625 316.21429443359375 344.03912353515625 362.183685302734375 332.302734375 346.595245361328125 370.471649169921875 399.299896240234375 415.62359619140625 434.24774169921875 440.742156982421875 434.645111083984375 404.770965576171875 440.02777099609375 467.1734619140625 511.8917236328125 641.71600341796875 695.49151611328125 474.69500732421875 447.821990966796875 590.62359619140625 753.82928466796875 781.6134033203125 752.42120361328125 766.64453125 647.6944580078125 541.3021240234375 733.9296875 746.9693603515625 683.061767578125 694.48468017578125 670.7596435546875 758.87164306640625 758.63153076171875 695.4013671875 679.82537841796875 737.97052001953125 751.38604736328125 740.4892578125 739.73638916015625 742.75341796875 721.910400390625 691.1927490234375 679.6527099609375 670.6513671875 666.53741455078125 682.469970703125 674.6717529296875 641.24603271484375 642.76641845703125 595.07257080078125 610.6258544921875 630.76361083984375 639.6558837890625 652.00115966796875 663.6689453125 638.030029296875 637.78289794921875 610.29534912109375 572.5697021484375 566.30780029296875 569.72332763671875 569.96826171875 583.91607666015625 553.628662109375 556.42913818359375 552.786865234375 531.07879638671875 514.42633056640625 526.044189453125 510.636627197265625 509.436492919921875 494.064056396484375 479.935943603515625 505.06689453125 530.6978759765625 516.33795166015625 502.888336181640625 498.3724365234375 466.94671630859375 438.520965576171875
841.50225830078125 794.4693603515625 745.19049072265625 867.77325439453125 796.45635986328125 644.95916748046875 528.8690185546875 711.43310546875 808.04193115234375 786.24798583984375 736.6910400390625 627.23187255859375 656.47503662109375 627.08331298828125 679.43365478515625 712.1031494140625 684.57427978515625 657.04193115234375 613.76983642578125 602.80328369140625 591.6202392578125 581.329345703125 575.2947998046875 550.1082763671875 518.97674560546875 508.015869140625 526.420654296875 571.8231201171875 553.9393310546875 458.8231201171875 440.8662109375 502.005096435546875 548.5528564453125 562.90191650390625 565.36962890625 541.8531494140625 526.96826171875 507.135498046875 482.8582763671875 464.302154541015625 443.19500732421875 423.47674560546875 396.129241943359375 389.212554931640625 380.457489013671875 394.912139892578125 415.546478271484375 399.654205322265625 383.86846923828125 421.378692626953125 494.1400146484375 473.82879638671875 448.702392578125 436.59466552734375 419.6695556640625 415.947845458984375 425.66949462890625 422.301025390625 453.318023681640625 444.865631103515625 442.846923828125 413.863372802734375 411.450103759765625 367.6910400390625 359.200103759765625 330.298492431640625 317.971099853515625 314.70294189453125 355.284027099609375 379.586181640625 333.05157470703125 343.018707275390625 363.349212646484375 413.483001708984375 464.129241943359375 489.857696533203125 506.017425537109375 448.21484375 428.382659912109375 477.7052001953125 622.71087646484375 695.21826171875 704.78228759765625 692.04193115234375 640.5362548828125 462.006805419921875 576.54364013671875 703.96575927734375 796.56805419921875 763.97900390625 792.44384765625 782.649658203125 705.4693603515625 775.53741455078125 767.47332763671875 710.248291015625 771.10546875 758.036865234375 781.51043701171875 750.54022216796875 759.044189453125 754.3072509765625 737.9620361328125 753.23187255859375 760.9268798828125 735.04193115234375 722.9110107421875 710.4461669921875 691.744873046875 675.0911865234375 680.59979248046875 674.22222900390625 688.81805419921875 674.88323974609375 662.20294189453125 636.39398193359375 597.14227294921875 600.2879638671875 603.08673095703125 642.58447265625 654.82867431640625 653.001708984375 649.1859130859375 623.0465087890625 580.9534912109375 578.35546875 570.963134765625 556.45123291015625 556.3299560546875 565.3548583984375 536.83843994140625 530.17596435546875 524.434814453125 514.88946533203125 489.55328369140625 505.47222900390625 510.400238037109375 504.16552734375 507.7596435546875 495.23980712890625 508.8917236328125 492.022674560546875 485.0023193359375 487.049896240234375 478.89569091796875 447.708038330078125 435.35260009765625
859.9903564453125 847.55950927734375 770.044189453125 734.5697021484375 777.89117431640625 649.22393798828125 534.41326904296875 659.58160400390625 781.5306396484375 768.37396240234375 697.4144287109375 654.73638916015625 655.80499267578125 689.2103271484375 710.43194580078125 688.41156005859375 673.2806396484375 656.9744873046875 601.51361083984375 628.339599609375 605.1864013671875 604.91668701171875 587.12469482421875 554.35089111328125 502.70068359375 548.2596435546875 483.43084716796875 535.632080078125 549.2244873046875 490.202392578125 428.567474365234375 474.424041748046875 537.08538818359375 550.91778564453125 550.17120361328125 525.998291015625 505.892852783203125 484.390594482421875 469.76361083984375 463.274932861328125 451.47393798828125 439.31915283203125 421.59808349609375 407.6341552734375 396.68310546875 404.137176513671875 403.24774169921875 394.516998291015625 376.9189453125 437.3724365234375 482.158172607421875 476.43878173828125 460.486968994140625 477.08673095703125 477.11962890625 473.670074462890625 403.734130859375 452.39398193359375 444.48809814453125 414.9444580078125 416.45068359375 419.280609130859375 352.832763671875 334.181976318359375 322.068603515625 342.49884033203125 341.036834716796875 338.699554443359375 362.111663818359375 395.3758544921875 363.57708740234375 344.33673095703125 371.44842529296875 432.13775634765625 476.998870849609375 484.623016357421875 551.51275634765625 569.727294921875 474.333343505859375 445.640594482421875 549.57427978515625 723.20294189453125 719.4620361328125 713.43426513671875 687.27777099609375 555.93255615234375 482.67120361328125 639.937255859375 744.283447265625 737.638916015625 761.75738525390625 775.38775634765625 741.1190185546875 756.29254150390625 737.36395263671875 735.5107421875 759.8310546875 791.0623779296875 780.0911865234375 786.61053466796875 791.93365478515625 763.05047607421875 743.67913818359375 766.75 761.31634521484375 728.9393310546875 705.6610107421875 696.75909423828125 682.1627197265625 682.49188232421875 686.12811279296875 693.25396728515625 701.530029296875 690.80670166015625 665.35260009765625 625.7607421875 617.963134765625 606.94842529296875 593.5589599609375 603.505126953125 639.23516845703125 608.586181640625 605.04022216796875 609.84014892578125 587.60882568359375 572.79876708984375 568.99774169921875 563.44219970703125 556.48297119140625 562.2720947265625 532.087890625 515.25146484375 492.463165283203125 494.998291015625 494.192169189453125 518.272705078125 549.16949462890625 522.65533447265625 517.12982177734375 501.16778564453125 496.5220947265625 480.9234619140625 463.624267578125 458.327667236328125 446.6337890625 436.337310791015625 436.066314697265625
838.42572021484375 859.0255126953125 835.297607421875 659.1717529296875 779.1978759765625 718.554443359375 541.39569091796875 630.9302978515625 751.8616943359375 752.60394287109375 723.77777099609375 699.06689453125 702.96710205078125 733.910400390625 698.44219970703125 673.4285888671875 640.02606201171875 625.20068359375 621.0975341796875 637.980712890625 624.98779296875 598.68255615234375 566.512451171875 526.99261474609375 548.06744384765625 551.34521484375 526.04876708984375 534.7471923828125 521.50738525390625 483.079925537109375 456.90191650390625 499.80950927734375 549.21197509765625 546.8690185546875 535.6224365234375 510.009063720703125 489.4110107421875 473.939910888671875 462.06121826171875 454.91326904296875 448.252838134765625 437.31463623046875 423.107147216796875 420.995941162109375 412.181976318359375 394.73583984375 381.41326904296875 376.648529052734375 369.971649169921875 409.544219970703125 459.21484375 429.223358154296875 413.67291259765625 453.7896728515625 430.9088134765625 442.975616455078125 376.966552734375 404.7052001953125 395.2420654296875 333.54364013671875 342.028350830078125 341.063507080078125 352.484130859375 372.81915283203125 362.36962890625 367.1649169921875 370.3089599609375 346.300445556640625 352.757354736328125 402.79705810546875 371.034027099609375 360.089569091796875 362.09014892578125 393.015869140625 408.62640380859375 406.075958251953125 439.825775146484375 479.681396484375 560.59808349609375 615.73638916015625 596.67913818359375 710.85772705078125 709.06463623046875 704.33160400390625 682.632080078125 679.69500732421875 608.9013671875 515.70037841796875 653.96484375 613.22503662109375 732.14398193359375 771.23126220703125 758.17633056640625 807.4886474609375 781.332763671875 815.9744873046875 798.732421875 818.2052001953125 812.20965576171875 781.4444580078125 758.4444580078125 751.93707275390625 740.14227294921875 756.3758544921875 740.767578125 720.3424072265625 704.63433837890625 697.318603515625 685.0283203125 681.4302978515625 681.6065673828125 697.047607421875 708.5283203125 678.8707275390625 645.22222900390625 630.00054931640625 620.10601806640625 636.38037109375 603.4041748046875 561.46826171875 582.08306884765625 584.017578125 597.9127197265625 590.7386474609375 585.23187255859375 580.30499267578125 566.455810546875 569.59466552734375 564.4869384765625 539.5924072265625 523.9075927734375 513.20733642578125 499.1400146484375 503.5731201171875 502.5589599609375 511.853179931640625 536.267578125 519.85601806640625 502.591278076171875 497.000579833984375 485.123016357421875 470.160430908203125 446.5 439.359405517578125 440.66497802734375 440.7755126953125 437.676300048828125
683.0130615234375 679.25567626953125 821.9376220703125 699.3441162109375 661.7386474609375 699.9251708984375 561.47393798828125 630.89227294921875 729.1751708984375 771.55340576171875 757.2528076171875 727.9954833984375 752.21429443359375 734.12982177734375 691.74884033203125 659.41839599609375 640.63720703125 653.40478515625 647.52099609375 628.8486328125 616.5052490234375 587.5447998046875 537.22332763671875 568.03228759765625 558.4710693359375 532.34356689453125 584.216552734375 587.04705810546875 565.31805419921875 539.88720703125 472.07257080078125 526.62701416015625 536.05108642578125 532.232421875 515.35260009765625 499.4761962890625 482.1575927734375 467.561798095703125 459.364501953125 443.676300048828125 431.111114501953125 432.022674560546875 438.795928955078125 446.46282958984375 430.99774169921875 405.922332763671875 389.116790771484375 370.001708984375 348.768707275390625 365.818023681640625 421.35260009765625 386.94500732421875 374.3599853515625 409.814056396484375 382.08941650390625 365.124725341796875 345.182525634765625 336.977325439453125 324.36395263671875 388.020965576171875 373.085601806640625 341.689910888671875 381.29534912109375 401.91497802734375 387.191619873046875 362.650421142578125 373.621307373046875 360.78912353515625 355.91497802734375 386.243194580078125 392.851470947265625 386.91778564453125 386.31121826171875 375.215423583984375 382.835601806640625 398.43878173828125 400.832183837890625 409.662139892578125 493.72393798828125 563.62188720703125 682.030029296875 712.47393798828125 690.79931640625 697.05670166015625 698.02947998046875 705.96600341796875 662.49322509765625 563.52496337890625 592.587890625 642.0079345703125 743.11962890625 762.50225830078125 786.51531982421875 835.40985107421875 820.2613525390625 815.14398193359375 828.6524658203125 805.48016357421875 794.61614990234375 761.5538330078125 742.58331298828125 742.251708984375 766.297607421875 734.28515625 727.4410400390625 704.8038330078125 696.410400390625 690.02154541015625 691.59979248046875 682.7015380859375 687.94158935546875 705.80841064453125 710.219970703125 688.994873046875 670.0458984375 662.85601806640625 653.23297119140625 629.73529052734375 600.60150146484375 589.4444580078125 558.25726318359375 563.7454833984375 576.301025390625 566.24261474609375 560.1400146484375 569.85089111328125 565.7755126953125 550.910400390625 529.667236328125 543.197265625 555.4937744140625 518.789794921875 502.510772705078125 493.24603271484375 490.15362548828125 485.26361083984375 509.43310546875 508.449554443359375 503.1099853515625 479.6400146484375 473.295928955078125 461.418365478515625 442.313018798828125 443.256805419921875 443.0220947265625 446.119049072265625 439.4886474609375
675.05572509765625 600.280517578125 619.593505859375 661.59521484375 612.44134521484375 546.636474609375 628.777587890625 643.811279296875 731.035400390625 760.4693603515625 747.49652099609375 731.08709716796875 731.61669921875 742.691650390625 717.33624267578125 702.59869384765625 672.14691162109375 639.47906494140625 616.57086181640625 607.8896484375 571.7227783203125 581.72650146484375 578.27117919921875 590.82867431640625 589.4639892578125 581.3426513671875 599.4117431640625 576.23052978515625 545.50347900390625 513.69512939453125 494.577239990234375 539.18121337890625 541.9202880859375 532.486083984375 520.36065673828125 508.85540771484375 499.22705078125 480.914642333984375 470.555755615234375 456.577239990234375 446.9210205078125 447.076080322265625 456.31011962890625 455.806060791015625 419.605682373046875 414.10626220703125 450.8304443359375 416.249114990234375 361.958770751953125 342.3489990234375 340.176544189453125 339.069671630859375 339.07550048828125 346.48895263671875 342.130279541015625 339.780487060546875 355.072021484375 322.02496337890625 376.455291748046875 420.865264892578125 408.95587158203125 373.822296142578125 365.29327392578125 398.27642822265625 391.7200927734375 386.747772216796875 391.59814453125 389.18292236328125 385.423919677734375 407.267120361328125 429.92681884765625 445.272369384765625 432.038330078125 408.702667236328125 448.25146484375 570.943115234375 572.46875 413.174224853515625 490.2822265625 658.88909912109375 702.60626220703125 712.5911865234375 647.14459228515625 668.59814453125 679.79443359375 679.22882080078125 647.4471435546875 698.0975341796875 706.12835693359375 730.0267333984375 750.69281005859375 824.90130615234375 806.268310546875 815.60223388671875 823.200927734375 813.26654052734375 801.2769775390625 802.06158447265625 776.12078857421875 783.18524169921875 772.28802490234375 752.46282958984375 751.1358642578125 724.3919677734375 735.09814453125 718.4779052734375 696.54705810546875 696.70440673828125 706.26654052734375 685.15704345703125 680.8658447265625 705.13763427734375 706.49188232421875 689.693359375 673.897216796875 655.34381103515625 643.56097412109375 628.0958251953125 616.95355224609375 610.19049072265625 581.45269775390625 542.7369384765625 557.18756103515625 553.14691162109375 532.51800537109375 551.535400390625 541.92974853515625 528.24505615234375 551.7938232421875 575.07489013671875 555.92449951171875 510.3194580078125 495.679443359375 492.396636962890625 470.780487060546875 463.626007080078125 482.227630615234375 498.15216064453125 476.174224853515625 451.747955322265625 446.38616943359375 445.3060302734375 445.611541748046875 444.231719970703125 441.745635986328125 435.6817626953125 435.186981201171875
656.2613525390625 756.934814453125 744.301025390625 617.21484375 566.3106689453125 643.67572021484375 801.7607421875 743.9569091796875 710.8865966796875 759.22418212890625 740.90362548828125 694.50738525390625 697.544189453125 713.84356689453125 738.47845458984375 708.0986328125 672.4376220703125 642.39453125 606.75396728515625 583.9234619140625 592.1748046875 628.4200439453125 630.4552001953125 629.4041748046875 598.5096435546875 599.36962890625 585.48126220703125 562.149658203125 523.4937744140625 518.7120361328125 532.65191650390625 540.1768798828125 537.93145751953125 524.3809814453125 519.6275634765625 500.534576416015625 489.95635986328125 484.4013671875 476.2386474609375 462.99603271484375 452.307830810546875 451.13946533203125 441.865631103515625 438.9163818359375 421.11962890625 397.617340087890625 412.33673095703125 396.413818359375 367.06121826171875 369.302154541015625 405.003387451171875 436.07257080078125 435.408721923828125 378.28118896484375 323.74273681640625 328.475616455078125 337.247161865234375 364.1241455078125 412.21826171875 413.601470947265625 393.38153076171875 371.45465087890625 338.731292724609375 370.683685302734375 377.34466552734375 408.375732421875 400.571990966796875 398.5096435546875 412.512481689453125 451.25 484.28515625 497.14569091796875 466.571990966796875 446.734130859375 538.79931640625 760.7789306640625 734.75494384765625 499.23809814453125 437.019287109375 649.994873046875 686.00054931640625 686.0203857421875 610.08160400390625 616.47052001953125 662.272705078125 692.50115966796875 703.80780029296875 728.67828369140625 758.1513671875 779.85430908203125 793.08447265625 829.04705810546875 791.2947998046875 816.41668701171875 814.5958251953125 798.9552001953125 781.5220947265625 789.552734375 761.88909912109375 770.92913818359375 780.58160400390625 763.47900390625 732.72222900390625 717.8310546875 711.36676025390625 700.482421875 692.7806396484375 683.6524658203125 684.7403564453125 677.8228759765625 676.32257080078125 710.50738525390625 704.16839599609375 677.68084716796875 690.283447265625 663.56573486328125 641.71881103515625 636.23297119140625 620.1593017578125 579.38720703125 575.49127197265625 566.3389892578125 587.29931640625 583.45916748046875 571.117919921875 540.22900390625 541.37530517578125 532.29083251953125 540.1978759765625 554.40020751953125 513.30615234375 484.772369384765625 477.43084716796875 470.65533447265625 462.68536376953125 450.20294189453125 448.44671630859375 465.357147216796875 447.69500732421875 440.183685302734375 443.94329833984375 442.712005615234375 439.4163818359375 440.483551025390625 438.26812744140625 438.77325439453125 438.350341796875
708.94842529296875 828.55780029296875 803.34185791015625 660.87811279296875 592.5272216796875 671.167236328125 809.2772216796875 776.2528076171875 739.2386474609375 742.08245849609375 716.762451171875 691.8406982421875 688.6365966796875 697.33331298828125 736.517578125 697.79193115234375 662.3248291015625 638.646240234375 598.91326904296875 584.38604736328125 603.823486328125 636.91552734375 657.72222900390625 634.58331298828125 622.33673095703125 609.4093017578125 598.03741455078125 578.81292724609375 527.51019287109375 559.36279296875 548.482421875 544.3072509765625 519.94195556640625 505.221649169921875 492.7896728515625 488.600921630859375 480.88946533203125 476.82257080078125 479.88037109375 468.266998291015625 454.613372802734375 436.85430908203125 427.03570556640625 428.74041748046875 425.8741455078125 394.234130859375 379.473358154296875 366.591827392578125 347.503387451171875 344.435943603515625 343.32086181640625 354.806121826171875 333.219940185546875 323.63037109375 324.892578125 343.308380126953125 407.99432373046875 423.07257080078125 422.236968994140625 400.34637451171875 380.95465087890625 376.829376220703125 365.404205322265625 355.03173828125 358.896270751953125 381.219512939453125 384.073699951171875 404.662139892578125 456.65985107421875 527.96258544921875 524.35430908203125 544.22222900390625 535.85150146484375 570.5447998046875 611.8355712890625 779.68310546875 786.802001953125 670.6751708984375 471.70294189453125 515.48358154296875 599.980712890625 617.9727783203125 563.1258544921875 634.5130615234375 664.797607421875 731.20013427734375 727.8140869140625 727.42218017578125 753.5889892578125 767.08673095703125 809.061767578125 806.58843994140625 780.84295654296875 829.57366943359375 824.53289794921875 818.8951416015625 796.5906982421875 763.8968505859375 759.39837646484375 737.163818359375 756.087890625 753.23468017578125 740.417236328125 727.57257080078125 708.98583984375 702.072021484375 700.160400390625 694.1065673828125 692.85546875 694.81646728515625 680.59124755859375 704.237548828125 710.202392578125 686.66778564453125 695.57366943359375 645.82763671875 637.21600341796875 631.05615234375 606.7528076171875 606.03460693359375 599.50811767578125 587.03228759765625 597.301025390625 606.94671630859375 589.75738525390625 552.50738525390625 543.5555419921875 545.2862548828125 542.219970703125 522.84808349609375 487.64794921875 467.472137451171875 457.967132568359375 462.266448974609375 454.680267333984375 447.798187255859375 448.85205078125 448.70294189453125 443.413818359375 442.71087646484375 443.56689453125 440.846923828125 437.94134521484375 438.948974609375 445.12359619140625 437.770965576171875 434.536285400390625
805.2720947265625 861.244873046875 818.38262939453125 703.146240234375 720.170654296875 670.33050537109375 805.6162109375 795.62530517578125 764.95977783203125 726.9378662109375 690.544189453125 658.77099609375 668.6224365234375 662.86279296875 714.54534912109375 721.65478515625 670.98468017578125 634.68365478515625 599.9869384765625 586.216552734375 610.82696533203125 621.727294921875 599.79815673828125 638.38494873046875 630.08392333984375 588.005126953125 562.628662109375 549.1162109375 552.6065673828125 562.8123779296875 545.1644287109375 521.85430908203125 508.1939697265625 494.328216552734375 490.09637451171875 480.796478271484375 472.3565673828125 466.84466552734375 461.1927490234375 466.818023681640625 451.44049072265625 437.483001708984375 426.884918212890625 416.90533447265625 416.566314697265625 415.935943603515625 390.379241943359375 351.13037109375 332.947845458984375 327.98016357421875 325.719940185546875 324.60205078125 319.20635986328125 322.9603271484375 384.1649169921875 385.4761962890625 393.398529052734375 445.404205322265625 427.509063720703125 402.49432373046875 383.178009033203125 391.6893310546875 372.19329833984375 363.499420166015625 372.229583740234375 373.0452880859375 386.03173828125 398.56915283203125 489.300445556640625 549.533447265625 490.333343505859375 562.5924072265625 663.09808349609375 733.6796875 749.065185546875 789.91839599609375 753.7984619140625 576.4569091796875 544.65081787109375 560.910400390625 514.13153076171875 549.3282470703125 639.24322509765625 697.68878173828125 736.6082763671875 731.2703857421875 748.04815673828125 740.68817138671875 747.13153076171875 755.94384765625 825.5555419921875 826.917236328125 777.53173828125 782.987548828125 798.63946533203125 813.65191650390625 812.25341796875 797.5538330078125 794.8350830078125 756.84808349609375 792.37811279296875 762.8951416015625 743.43194580078125 725.89288330078125 713.29931640625 721.1575927734375 716.58221435546875 697.8372802734375 689.54254150390625 676.83624267578125 680.772705078125 677.4024658203125 693.19329833984375 669.8707275390625 637.95013427734375 631.794189453125 627.17120361328125 623.0855712890625 620.27496337890625 612.54815673828125 606.20501708984375 600.8248291015625 597.3372802734375 588.72222900390625 575.35546875 549.1734619140625 542.27496337890625 526.29705810546875 519.97052001953125 510.9761962890625 479.73980712890625 470.11151123046875 466.501129150390625 458.679718017578125 452.193878173828125 448.6768798828125 448.204071044921875 444.124725341796875 441.3248291015625 441.152496337890625 444.71484375 441.3662109375 447.73114013671875 442.961456298828125 439.498870849609375 438.969940185546875 437.87188720703125
898.5589599609375 879.2613525390625 760.47674560546875 778.28515625 698.565185546875 721.589599609375 794.280029296875 772.6700439453125 740.2607421875 712.1202392578125 666.50115966796875 632.32537841796875 630.46600341796875 657.4393310546875 707.89227294921875 719.0572509765625 660.72052001953125 638.08673095703125 601.74090576171875 592.600341796875 665.62139892578125 676.61053466796875 585.9013671875 578.0458984375 569.732421875 560.9569091796875 571.02606201171875 583.96087646484375 583.6734619140625 556.77099609375 520.47674560546875 497.45635986328125 492.329254150390625 482.837310791015625 492.605438232421875 485.66156005859375 474.133209228515625 465.363372802734375 479.071441650390625 485.298187255859375 472.82257080078125 465.21258544921875 437.751708984375 413.12078857421875 395.571990966796875 392.345245361328125 366.200103759765625 342.20465087890625 334.829376220703125 333.30157470703125 328.4569091796875 333.278900146484375 363.575408935546875 368.217681884765625 447.991302490234375 421.51416015625 385.2069091796875 427.757354736328125 419.6575927734375 409.880950927734375 415.83050537109375 410.30499267578125 388.72393798828125 383.181396484375 392.99774169921875 394.112091064453125 401.39739990234375 403.119049072265625 428.841827392578125 473.217132568359375 489.37640380859375 644.68988037109375 734.12811279296875 733.9716796875 730.41668701171875 746.9461669921875 771.84613037109375 740.48016357421875 643.90985107421875 706.1796875 629.0623779296875 627.552734375 671.12017822265625 714.10711669921875 750.8355712890625 729.9693603515625 748.30841064453125 757.73748779296875 754.6802978515625 740.67291259765625 807.64117431640625 813.7613525390625 812.544189453125 828.57366943359375 799.40020751953125 819.07427978515625 790.9217529296875 793.69049072265625 763.95123291015625 756.40362548828125 751.09979248046875 770.11224365234375 763.08673095703125 724.46539306640625 727.25341796875 712.15704345703125 706.65643310546875 698.82879638671875 682.42572021484375 678.1986083984375 641.30950927734375 636.262451171875 646.947265625 662.1065673828125 641.28570556640625 627.94384765625 618.39910888671875 619.0430908203125 609.28118896484375 598.5765380859375 598.9732666015625 610.350341796875 603.09637451171875 586.49945068359375 583.9892578125 572.2613525390625 528.269287109375 507.748870849609375 529.7896728515625 530.8123779296875 497.76531982421875 481.164337158203125 471.166656494140625 458.58050537109375 449.76416015625 450.20123291015625 448.763031005859375 447.98016357421875 444.451812744140625 442.875274658203125 442.404754638671875 438.22052001953125 443.168975830078125 438.231292724609375 439.27947998046875 439.892303466796875 438.88604736328125
891.84808349609375 893.744873046875 867.67742919921875 858.517578125 781.53515625 692.97393798828125 716.632080078125 756.97845458984375 718.850341796875 669.34033203125 640 620.01641845703125 607.64227294921875 657.6751708984375 687.420654296875 701.15875244140625 683.2086181640625 647.797607421875 609.98297119140625 601.35943603515625 648.344970703125 657.92236328125 611.0703125 562.522705078125 569.93255615234375 586.0379638671875 563.46600341796875 536.02435302734375 530.04364013671875 499.39569091796875 480.6593017578125 461.688201904296875 457.489532470703125 466.757354736328125 484.248870849609375 491.4093017578125 494.865631103515625 497.82879638671875 480.108856201171875 468.16552734375 470.164398193359375 471.520416259765625 451.730712890625 427.311279296875 416.32879638671875 392.056121826171875 353.12640380859375 343.384918212890625 340.884918212890625 347.865081787109375 354.38037109375 383.005096435546875 437.451812744140625 417.20465087890625 461.861785888671875 408.89794921875 413.524383544921875 402.776641845703125 395.77777099609375 408.924041748046875 428.197845458984375 430.709747314453125 424.524383544921875 411.98638916015625 403.51416015625 410.97503662109375 452.152496337890625 428.734130859375 427.396820068359375 453.753387451171875 470.46484375 581.230712890625 632.3599853515625 704.7703857421875 700.10150146484375 731.81463623046875 764.9970703125 761.52496337890625 768.26416015625 767.1258544921875 701.28228759765625 594.35150146484375 651.62298583984375 715.111083984375 722.12359619140625 713.677978515625 713.07879638671875 726.3826904296875 739.2703857421875 766.43365478515625 805.71087646484375 815.4041748046875 836.5255126953125 826.30157470703125 795.92913818359375 758.81634521484375 751.73638916015625 761.22393798828125 756.87164306640625 780.001708984375 745.79083251953125 739.57427978515625 740.37640380859375 729.04815673828125 729.4569091796875 720.61962890625 714.4093017578125 693.74603271484375 679.162109375 665.77642822265625 650.54931640625 624.58392333984375 638.463134765625 642.1065673828125 638.23126220703125 629.69500732421875 617.68536376953125 610.9796142578125 601.04254150390625 595.3106689453125 592.10687255859375 600.6865234375 590.412109375 587.48297119140625 574.361083984375 574.59295654296875 553.85150146484375 540.50567626953125 556.2545166015625 545.95068359375 512.6910400390625 498.29443359375 478.44329833984375 455.01361083984375 448.145111083984375 447.544219970703125 447.20635986328125 445.71087646484375 445.45635986328125 441.3310546875 440.2947998046875 438.51531982421875 439.997100830078125 449.16949462890625 447.7896728515625 449.145111083984375 444.924041748046875
888.8197021484375 865.903076171875 842.09185791015625 834.012451171875 832.6627197265625 834.89569091796875 755.66552734375 723.780029296875 702.46771240234375 669.7921142578125 644.83221435546875 627.63323974609375 597.079345703125 627.54705810546875 619.72674560546875 664.086181640625 681.58673095703125 664.0113525390625 642.15081787109375 661.17742919921875 673.155029296875 660.10205078125 622.09918212890625 581.39794921875 599.684814453125 568.17742919921875 546.517578125 522.53460693359375 501.152496337890625 492.221099853515625 495.05328369140625 476.0731201171875 490.18988037109375 490.149658203125 473.45635986328125 483.46881103515625 495.2896728515625 500.4189453125 492.179718017578125 472.184814453125 452.1768798828125 465.257354736328125 436.731292724609375 422.7154541015625 391.0924072265625 403.258514404296875 393.774383544921875 362.759063720703125 412.208038330078125 429.331634521484375 406.84014892578125 417.652496337890625 447.7386474609375 466.28912353515625 440.427978515625 384.114501953125 384.538543701171875 403.365081787109375 420.980712890625 420.522674560546875 467.178558349609375 503.17291259765625 493.278350830078125 453.248291015625 462.91949462890625 491.106842041015625 505.160430908203125 442.75 466.2896728515625 588.0924072265625 497.681396484375 552.16778564453125 650.66668701171875 753.987548828125 695.732421875 708.28173828125 745.97210693359375 759.75341796875 753.3248291015625 746.05157470703125 731.501708984375 702.9217529296875 622.11846923828125 708.2965087890625 721.4461669921875 686.70068359375 698.08502197265625 740.68060302734375 744.65985107421875 777.044189453125 810.66607666015625 819.6610107421875 829.19158935546875 827.82537841796875 830.7965087890625 804.0872802734375 805.966552734375 782.28741455078125 778.918701171875 754.32763671875 746.385498046875 750.91497802734375 727.17913818359375 731.98529052734375 742.2210693359375 744.58050537109375 704.17572021484375 683.7216796875 668.86053466796875 663.8350830078125 654.662109375 633.7103271484375 617.79876708984375 639.85089111328125 636.67401123046875 626.265869140625 620.28228759765625 605.1734619140625 597.4365234375 595.87982177734375 580.84844970703125 591.6365966796875 591.54815673828125 581.49151611328125 576.44049072265625 567.4359130859375 558.67742919921875 554.6383056640625 556.94329833984375 546.13433837890625 530.28228759765625 523.0574951171875 483.55328369140625 449.284576416015625 447.4920654296875 447.378692626953125 446.583892822265625 447.319732666015625 445.79876708984375 444.26531982421875 443.45294189453125 448.5572509765625 452.66607666015625 454.57708740234375 446.56689453125 454.365081787109375 468.4886474609375
858.445556640625 881.92120361328125 880.36962890625 853.4552001953125 824.03289794921875 783.1689453125 764.07598876953125 771.56805419921875 700.114501953125 653.28167724609375 665.6292724609375 650.22845458984375 612.903076171875 584.51190185546875 589.969970703125 605.85205078125 651.6558837890625 666.24432373046875 691.5855712890625 704.727294921875 685.0191650390625 649.5306396484375 614.02667236328125 596.63604736328125 595.08673095703125 551.22332763671875 522.5555419921875 508.71826171875 502.41949462890625 503.721099853515625 502.850921630859375 455.997161865234375 447.40069580078125 466.617340087890625 480.702392578125 476.8424072265625 481.4013671875 488.864501953125 494.86962890625 488.438201904296875 467.7562255859375 379.56292724609375 397.295928955078125 390.700347900390625 441.76019287109375 457.0096435546875 432.616790771484375 416.28118896484375 489.95635986328125 492.0079345703125 423.12811279296875 425.414398193359375 479.971099853515625 460.0810546875 428.404754638671875 390.5113525390625 386.93310546875 404.174041748046875 428.733001708984375 442.31915283203125 480.644561767578125 535.88494873046875 539.84808349609375 497.32086181640625 512.26812744140625 500.7369384765625 475.3775634765625 460.253387451171875 467.026641845703125 615.54022216796875 624.55780029296875 686.47845458984375 772.01190185546875 764.75677490234375 710.61566162109375 730.9024658203125 742.57086181640625 754.230712890625 763.522705078125 724.15643310546875 725.56121826171875 724.86395263671875 631.14398193359375 671.920654296875 695.802734375 676.16156005859375 704.0606689453125 760.08477783203125 772.8441162109375 774.410400390625 810.234130859375 799.13720703125 825.18255615234375 831.86846923828125 834.54931640625 795.1910400390625 816.05841064453125 784.33160400390625 771.23052978515625 750.114501953125 749.6700439453125 748.019287109375 748.4013671875 745.29193115234375 741.48638916015625 722.84124755859375 692.11676025390625 674.90191650390625 666.84124755859375 662.8519287109375 657.54705810546875 628.56573486328125 618.28912353515625 614.37530517578125 616.81463623046875 630.684814453125 623.75341796875 593.37640380859375 596.24658203125 588.8531494140625 571.435546875 580.59979248046875 585.79254150390625 586.8531494140625 580.1468505859375 574.5255126953125 571.04254150390625 548.3582763671875 541.74774169921875 551.4359130859375 535.11962890625 499.765380859375 462.530609130859375 452.80328369140625 448.569732666015625 450.934814453125 456.857696533203125 455.9744873046875 458.290802001953125 453.557830810546875 456.003387451171875 464.227325439453125 465.3612060546875 460.336181640625 450.65985107421875 455.013031005859375 469.085601806640625
719.4603271484375 750.34014892578125 819.72052001953125 835.61846923828125 823.382080078125 837.73809814453125 810.8123779296875 817.8389892578125 771.22674560546875 655.78515625 634.42120361328125 622.8072509765625 597.28289794921875 595.35546875 567.552734375 585.111083984375 676.67633056640625 667.96710205078125 638.234130859375 654.28228759765625 645.4500732421875 639.28118896484375 614.283447265625 607.93536376953125 591.2772216796875 575.23016357421875 540.51190185546875 490.040252685546875 446.813507080078125 441.599761962890625 440.1734619140625 454.6224365234375 479.1556396484375 436.917236328125 417.28118896484375 423.78118896484375 410.642852783203125 408.320281982421875 411.751129150390625 433.9603271484375 388.42913818359375 439.79705810546875 470.824249267578125 437.000579833984375 435.3724365234375 468.678009033203125 493.55670166015625 514.13323974609375 538.41552734375 483.567474365234375 455.367919921875 425.242645263671875 439.44329833984375 435.829925537109375 408.699188232421875 390.85205078125 409.01983642578125 401.7279052734375 420.465972900390625 473.117919921875 519.99658203125 500.162689208984375 521.8809814453125 533.87298583984375 512.96087646484375 497.416961669921875 490.85205078125 594.7041015625 516.93365478515625 504.99774169921875 601.69219970703125 646.7783203125 676.66839599609375 724.927978515625 722.8072509765625 711.93365478515625 709.176513671875 757.55670166015625 723.06915283203125 695.51470947265625 735.0062255859375 746.378662109375 735.318603515625 666.987548828125 634.294189453125 646.80499267578125 743.6065673828125 787.5574951171875 772.97222900390625 769.25341796875 800.32427978515625 799.4603271484375 828.14910888671875 803.69671630859375 792.21429443359375 777.23358154296875 803.30670166015625 800.8565673828125 797.584228515625 764.30780029296875 766.684814453125 735.74884033203125 756.681396484375 753.3441162109375 741.75225830078125 709.0430908203125 695.410400390625 689.3441162109375 674.1768798828125 679.48956298828125 663.41607666015625 657.67633056640625 652.0289306640625 636.146240234375 619.38775634765625 581.1627197265625 585.36053466796875 587.15875244140625 565.4013671875 585.34466552734375 564.700927734375 567.4620361328125 577.688232421875 584.19219970703125 581.62359619140625 563.4127197265625 566.0306396484375 552.5714111328125 514.0289306640625 508.62017822265625 461.429718017578125 456.185821533203125 459.339569091796875 458.693878173828125 459.528900146484375 457.496612548828125 454.01531982421875 452.016998291015625 454.48980712890625 465.074249267578125 464.625274658203125 468.58221435546875 471.9041748046875 464.1734619140625 460.136627197265625 448.000579833984375 461.455780029296875
648.85943603515625 722.4393310546875 685.43707275390625 824.90020751953125 798.57086181640625 844.03228759765625 834.0538330078125 808.66778564453125 755.71142578125 708.8443603515625 654.37188720703125 648.60430908203125 629.81292724609375 576.57366943359375 574.9886474609375 585.77667236328125 669.64288330078125 661.839599609375 621.35205078125 595.251708984375 612.1788330078125 637.96258544921875 647.15478515625 624.512451171875 578.9761962890625 517.00567626953125 496.82257080078125 444.3775634765625 495.61224365234375 502.709197998046875 499.986968994140625 504.437652587890625 509.337982177734375 504.99432373046875 445.721099853515625 499.617919921875 485.248870849609375 474.53118896484375 454.9013671875 463.952392578125 449.780609130859375 484.037994384765625 481.39398193359375 467.31707763671875 430.81915283203125 426.406463623046875 439.209747314453125 514.06744384765625 531.227294921875 527.688232421875 521.0906982421875 492.640594482421875 465.412689208984375 452.751708984375 417.084197998046875 397.418365478515625 416.547607421875 418.11224365234375 458.246612548828125 496.66552734375 540.08160400390625 514.9716796875 590.10546875 677.90814208984375 664.32598876953125 597.25494384765625 584.871337890625 683.5889892578125 674.16552734375 594.33221435546875 542.08392333984375 641.23980712890625 773.9110107421875 760.27154541015625 768.149658203125 738.90704345703125 734.03887939453125 702.90478515625 695.58502197265625 719.54364013671875 782.79534912109375 793.78570556640625 816.05950927734375 752.5396728515625 703.635498046875 705.1785888671875 725.53570556640625 747.13763427734375 759.1434326171875 789.89569091796875 836.43878173828125 809.4937744140625 795.9217529296875 808.16949462890625 789.103759765625 790.41839599609375 812.48016357421875 816.05670166015625 779.42047119140625 759.197265625 749.6859130859375 725.79364013671875 748.55841064453125 736.93255615234375 727.34356689453125 713.1383056640625 694.14398193359375 694.08843994140625 682.181396484375 683.339111328125 669.6802978515625 665.5113525390625 659.913818359375 652.52947998046875 638.8123779296875 626.38262939453125 558.90191650390625 584.81292724609375 556.68707275390625 582.188232421875 553.602783203125 555.267578125 587.72393798828125 576.80670166015625 572.25341796875 545.7052001953125 559.16552734375 541.4744873046875 484.7069091796875 460.55950927734375 460.40533447265625 460.8037109375 460.883209228515625 457.458038330078125 455.109405517578125 454.48583984375 456.25396728515625 456.79534912109375 458.96087646484375 477.233001708984375 468.48638916015625 469.421783447265625 474.63995361328125 466.34466552734375 468.217132568359375 451.864501953125 458.095245361328125
742.3775634765625 610.0238037109375 781.11279296875 810.50677490234375 771.33331298828125 828.6065673828125 826.38494873046875 824.4251708984375 816.286865234375 747.46978759765625 655.70068359375 637.66668701171875 592.1292724609375 614.89569091796875 648.45806884765625 554.1768798828125 592.7879638671875 664.297607421875 662.36224365234375 620.04876708984375 564.24505615234375 572.688232421875 573.4427490234375 526.90191650390625 551.33673095703125 464.5589599609375 447.94842529296875 519.61395263671875 538.76641845703125 516.378662109375 525.88720703125 527.12017822265625 515.2125244140625 467.63775634765625 497.570281982421875 523.77947998046875 515.91326904296875 508.408172607421875 504.8265380859375 520.99774169921875 453.247161865234375 452.723358154296875 458.508514404296875 460.890838623046875 437.4189453125 428.658172607421875 452.7069091796875 455.28515625 468.52606201171875 495.2930908203125 526.94158935546875 522.765869140625 475.312347412109375 444.66949462890625 417.5836181640625 434.28118896484375 429.1558837890625 454.803863525390625 512.765869140625 531.14117431640625 578.44842529296875 579.61676025390625 563.015869140625 643.75225830078125 678.4393310546875 738.624267578125 690.34979248046875 742.89398193359375 697.30499267578125 617.69049072265625 608.44671630859375 702.13494873046875 743.3968505859375 767.62701416015625 798.8883056640625 767.03399658203125 774.83856201171875 717.53173828125 712.53570556640625 715.06463623046875 795.56744384765625 839.75738525390625 820.6524658203125 751.5096435546875 730.272705078125 717.00341796875 742.4410400390625 737.10223388671875 732.17633056640625 753.16156005859375 818.9603271484375 795.660400390625 791.97564697265625 807.22393798828125 824.71600341796875 800.28741455078125 761.947265625 772.16326904296875 777.57550048828125 753.797607421875 751.2562255859375 727.60150146484375 720.81121826171875 722.59637451171875 705.917236328125 701.4024658203125 686.69049072265625 674.38494873046875 676.83447265625 673.19451904296875 671.417236328125 664.29705810546875 656.53570556640625 656.74945068359375 632.5889892578125 615.21826171875 591.4444580078125 540.70068359375 544.9393310546875 553.5872802734375 587.11846923828125 606.969970703125 587.14227294921875 554.4285888671875 546.52154541015625 540.98809814453125 526.7041015625 473.928009033203125 459.831634521484375 457.892303466796875 457.185943603515625 458.563873291015625 461.0396728515625 457.259063720703125 459.989227294921875 459.72222900390625 467.101470947265625 468.566314697265625 459.825958251953125 475.603729248046875 483.6065673828125 482.7579345703125 485.67132568359375 472.846923828125 471.424041748046875 464.498870849609375 462.94049072265625
756.7630615234375 612.8681640625 786.98431396484375 753.65155029296875 764.05169677734375 792.35015869140625 820.84613037109375 787.427978515625 788.078369140625 742.71685791015625 667.38909912109375 623.9779052734375 606.160888671875 620.516845703125 639.9622802734375 603.697998046875 553.34149169921875 626.897216796875 679.1004638671875 665.2723388671875 638.77099609375 554.392578125 580.593505859375 534.67364501953125 448.25030517578125 527.01507568359375 540.30084228515625 520.01800537109375 540.943115234375 532.849609375 530.7984619140625 525.7445068359375 491.10589599609375 436.817657470703125 520.91986083984375 524.96746826171875 535.25201416015625 491.03485107421875 491.335662841796875 492.214874267578125 484.602203369140625 439.16259765625 451.227630615234375 440.50506591796875 430.5360107421875 436.656219482421875 512.00811767578125 519.55865478515625 493.43902587890625 477.8995361328125 469.805450439453125 486.483154296875 467.533111572265625 435.3896484375 443.0047607421875 449.026123046875 465.651580810546875 522.26190185546875 575.9285888671875 590.8565673828125 736.72882080078125 749.607421875 730.95123291015625 741.41290283203125 703.73980712890625 765.96490478515625 775.1893310546875 791.8966064453125 662.4814453125 654.45819091796875 640.87396240234375 720.77642822265625 725.54296875 763.3211669921875 740.1800537109375 772.7392578125 771.75311279296875 713.58477783203125 700.77117919921875 763.89312744140625 767.9302978515625 793.26483154296875 770.66259765625 730.029052734375 706.32403564453125 714.18701171875 723.49591064453125 738.10052490234375 712.14111328125 728.19049072265625 793.160888671875 775.0743408203125 789.9970703125 800.71832275390625 807.00115966796875 790.81182861328125 777.50408935546875 769.78863525390625 776.16302490234375 764.562744140625 765.61553955078125 732.70037841796875 707.1864013671875 674.0098876953125 676.92218017578125 687.5435791015625 686.7921142578125 670.8106689453125 641.76885986328125 609.1231689453125 650.2554931640625 662.08477783203125 662.280517578125 660.62310791015625 621.849609375 531.16839599609375 509.213134765625 517.2392578125 515.96807861328125 517.89892578125 573.9815673828125 589.4332275390625 548.892578125 553.9256591796875 525.06158447265625 518.8536376953125 468.5360107421875 459.805450439453125 460.08477783203125 458.674224853515625 459.8734130859375 459.064239501953125 462.9210205078125 460.072021484375 459.581878662109375 460.9500732421875 469.463409423828125 473.10394287109375 464.236358642578125 484.420440673828125 492.2392578125 482.099884033203125 475.3658447265625 475.159698486328125 473.155059814453125 468.77294921875 460.69976806640625
569.73016357421875 612.6417236328125 773.92236328125 745.3089599609375 723.56121826171875 758.4727783203125 798.5045166015625 743.536865234375 747.30841064453125 710.33099365234375 668.6593017578125 629.87530517578125 621.727294921875 610.237548828125 588.26873779296875 589.83392333984375 554.11737060546875 599.45068359375 672.0782470703125 663.34014892578125 652.31646728515625 613.086181640625 595.60260009765625 513.9727783203125 478.007354736328125 560.36279296875 542.97332763671875 538.41497802734375 530.68536376953125 536.248291015625 532.48529052734375 520.1116943359375 514.46112060546875 471.857147216796875 493.425750732421875 524.14849853515625 532.82427978515625 509.24603271484375 489.121307373046875 468.116790771484375 457.684814453125 422.774383544921875 431.484130859375 430.2462158203125 439.930267333984375 436.28741455078125 473.537994384765625 490.547607421875 518.95745849609375 521.62982177734375 495.66497802734375 482.938201904296875 473.947845458984375 445.019287109375 451.02728271484375 470.748870849609375 492.005096435546875 532.522705078125 545.8106689453125 587.9093017578125 625.13153076171875 700.5362548828125 726.67913818359375 780.04083251953125 771.00225830078125 804.31591796875 768.70465087890625 812.77606201171875 787.9603271484375 757.19329833984375 625.15814208984375 744.5306396484375 702.80780029296875 750.9285888671875 714.27606201171875 722.92236328125 732.89837646484375 726.244873046875 707.23529052734375 718.8565673828125 716.12359619140625 727.3355712890625 723.24151611328125 724.302734375 689.8582763671875 692.1927490234375 699.19384765625 703.73980712890625 722.818603515625 742.3531494140625 781.2120361328125 779.984130859375 799.07257080078125 780.0572509765625 794.64056396484375 768.16778564453125 762.4586181640625 766.6541748046875 754.93145751953125 746.632080078125 742.998291015625 727.797607421875 703.42236328125 691.3582763671875 674.10711669921875 690.42742919921875 698.382080078125 673.9710693359375 637.13775634765625 531.170166015625 578.90081787109375 641.5107421875 595.8282470703125 533.71258544921875 512.302734375 530.02099609375 590.1717529296875 601.11566162109375 585.0306396484375 523.9189453125 497.904754638671875 499.300445556640625 511.278900146484375 502.335601806640625 496.82086181640625 475.028350830078125 461.571990966796875 464.197265625 466.3582763671875 458.078216552734375 457.933685302734375 459.021484375 463.6400146484375 460.21881103515625 458.9727783203125 462.670623779296875 478.030609130859375 485.936492919921875 465.518707275390625 481.421783447265625 497.12640380859375 489.98980712890625 484.861785888671875 482.91778564453125 476.337310791015625 470.221649169921875 457.9744873046875
544.43365478515625 804.43365478515625 841.08673095703125 751.551025390625 667.79876708984375 778.01702880859375 754.1865234375 707.69384765625 691.25341796875 684.2421875 670.19842529296875 660.4268798828125 645.22674560546875 614.0731201171875 587.99322509765625 584.128662109375 582.019287109375 550.61395263671875 661.40875244140625 659.88433837890625 652.806640625 629.41326904296875 587.2896728515625 581.81915283203125 469.0272216796875 521.061767578125 533.89453125 539.4268798828125 528.29254150390625 528.77496337890625 533.8865966796875 538.12811279296875 524.87109375 492.88037109375 437.95294189453125 511.943878173828125 520.662109375 506.61846923828125 492.41497802734375 480.237518310546875 462.908172607421875 433.808380126953125 439.611663818359375 478.21893310546875 497.105438232421875 482.821441650390625 476.286834716796875 491.941619873046875 477.4779052734375 498.565765380859375 494.18310546875 498.09466552734375 471.28912353515625 460.723358154296875 461.280487060546875 479.49603271484375 503.704071044921875 514.95123291015625 602.60546875 734.48468017578125 738.6927490234375 821.21484375 822.44049072265625 804.94842529296875 779.13433837890625 788.24041748046875 795.88037109375 811.73016357421875 785.9217529296875 771.2034912109375 748.45916748046875 715.21142578125 696.3123779296875 704.0572509765625 701.6610107421875 691.78399658203125 701.725341796875 712.99432373046875 705.20184326171875 695.25396728515625 680.9744873046875 697.5703125 698.272705078125 686.31292724609375 712.00738525390625 732.3140869140625 761.82763671875 725.08477783203125 761.39569091796875 794.6893310546875 797.76361083984375 771.58843994140625 780.1593017578125 769.267578125 745.5096435546875 751.5130615234375 754.5079345703125 762.1031494140625 760.26947021484375 737.23529052734375 742.38775634765625 721.87640380859375 701.92236328125 705.6365966796875 706.329345703125 671.1593017578125 648.353759765625 590.11395263671875 574.05328369140625 579.3153076171875 529.89288330078125 548.2755126953125 534.12982177734375 621.50054931640625 593.3758544921875 565.638916015625 600.1865234375 630.50115966796875 607.10150146484375 559.103759765625 507.739837646484375 486.44049072265625 481.587860107421875 480.756805419921875 479.428558349609375 472.20465087890625 467.674591064453125 466.6241455078125 464.566314697265625 459.10601806640625 458.03118896484375 462.165496826171875 466.0748291015625 464.6689453125 461.725616455078125 465.392852783203125 476.41497802734375 493.3582763671875 469.233001708984375 481.08221435546875 501.729583740234375 494.855438232421875 490.860626220703125 485.264739990234375 476.4744873046875 478.396270751953125 460.361663818359375
554.46539306640625 790.9892578125 809.59466552734375 755.37359619140625 651.25738525390625 706.59808349609375 704.7613525390625 735.2579345703125 655.2806396484375 622.02789306640625 686.6593017578125 672.63720703125 642.9144287109375 614.1224365234375 604.899658203125 553.81011962890625 553.617919921875 531.8724365234375 661.28515625 661.9693603515625 658.30487060546875 612.44158935546875 599.0872802734375 543.64398193359375 465.613372802734375 471.471649169921875 458.115631103515625 493.295928955078125 513.52947998046875 506.814056396484375 519.635498046875 519.3662109375 510.860626220703125 511.815765380859375 489.76361083984375 471.034027099609375 507.536285400390625 494.81463623046875 496.762481689453125 485.48468017578125 470.55499267578125 438.649658203125 447.544219970703125 507.9593505859375 541.10260009765625 551.13494873046875 528.294189453125 536.628662109375 508.847503662109375 492.61053466796875 508.068603515625 491.241485595703125 473.611663818359375 477.866790771484375 488.231719970703125 541.3775634765625 636.36395263671875 598.08392333984375 562.36053466796875 657.51019287109375 744.81292724609375 826.04022216796875 829.68194580078125 801.44219970703125 789.35546875 768.1417236328125 781.286865234375 785.8203125 824.1065673828125 808.051025390625 779.32366943359375 716.77154541015625 692.0203857421875 721.7403564453125 725.0572509765625 760.81744384765625 733.29962158203125 743.9954833984375 757.2103271484375 786.67572021484375 676.64453125 704.38494873046875 700.42236328125 718.54876708984375 788.37017822265625 779.12469482421875 771.667236328125 774.11383056640625 751.052734375 801.7772216796875 806.8355712890625 761.31011962890625 756.04705810546875 750.71087646484375 705.6751708984375 735.99432373046875 763.84918212890625 757.1802978515625 747.66204833984375 736.3089599609375 725.4892578125 727.3424072265625 731.68426513671875 713.82366943359375 691.57257080078125 683.219970703125 697.662109375 603.7879638671875 615.78173828125 673.78106689453125 603.931396484375 587.10089111328125 601.55841064453125 649.68707275390625 602.980712890625 566.6910400390625 609.4693603515625 623.29986572265625 577.52154541015625 548.6365966796875 558.45526123046875 515.737548828125 500.917236328125 488.8406982421875 469.42291259765625 469.08050537109375 467.28570556640625 466.371307373046875 465.920623779296875 463.350341796875 461.98980712890625 478.2891845703125 478.413818359375 467.355438232421875 466.78118896484375 466.3486328125 475.187652587890625 489.25396728515625 477.16497802734375 480.8089599609375 502.77606201171875 500.081634521484375 493.51220703125 485.42120361328125 480.146270751953125 481.442169189453125 465.40985107421875
627.20916748046875 790.69158935546875 745.26983642578125 758.64288330078125 602.46484375 638.91326904296875 732.40020751953125 650.0889892578125 603.4234619140625 616.11614990234375 670.30780029296875 624.56744384765625 576.96600341796875 622.19500732421875 615.17236328125 581.39288330078125 618.16839599609375 538.62640380859375 656.07427978515625 666.01190185546875 638.2421875 553.4869384765625 497.15704345703125 476.98187255859375 522.822021484375 514.42633056640625 485.644561767578125 443.845794677734375 470.70068359375 480.462005615234375 499.447845458984375 523.0623779296875 519.2921142578125 520.8389892578125 522.00396728515625 468.3389892578125 500.278900146484375 497.443878173828125 485.43536376953125 474.18084716796875 462.229034423828125 436.153076171875 421.129241943359375 443.9210205078125 500.04931640625 542.64288330078125 553.87469482421875 532.9779052734375 515.53118896484375 512.44671630859375 513.899658203125 505.632659912109375 511.40985107421875 524.53912353515625 565.90594482421875 601.86053466796875 734.13037109375 709.01190185546875 571.61279296875 652.02325439453125 810.3424072265625 780.48358154296875 777.26641845703125 796.53857421875 784.76470947265625 772.63995361328125 754.2086181640625 793.43988037109375 842.7913818359375 790.29986572265625 759.01531982421875 724.50677490234375 716.1258544921875 725.56689453125 757.244873046875 764.195556640625 776.3995361328125 760.88323974609375 760.40020751953125 768.00677490234375 724.315185546875 707.80499267578125 678.76812744140625 719.31292724609375 796.445556640625 770.5283203125 756.614501953125 781.3135986328125 775.912109375 744.4144287109375 763.6048583984375 769.97393798828125 755.73468017578125 736.78515625 740.47900390625 695.3616943359375 740.82427978515625 734.0289306640625 743.0697021484375 741.63604736328125 729.95977783203125 713.515869140625 712.25738525390625 695.7137451171875 607.1865234375 620.06011962890625 585.7879638671875 564.53289794921875 667.15875244140625 665.94598388671875 657.62982177734375 643.1099853515625 642.2086181640625 630.0906982421875 596.27606201171875 589.01641845703125 627.27435302734375 605.52099609375 581.78912353515625 592.23187255859375 573.9779052734375 544.89288330078125 507.600921630859375 474.557830810546875 462.924041748046875 466.199554443359375 464.802154541015625 465.973358154296875 465.08221435546875 466.7420654296875 466.6400146484375 484.39837646484375 474.329376220703125 466.744903564453125 467.091827392578125 467.20068359375 476.232421875 493.634918212890625 479.8106689453125 488.0447998046875 491.35601806640625 507.635498046875 504.839141845703125 496.912689208984375 488.90362548828125 485.53741455078125 473.686492919921875
733.9393310546875 776.170654296875 668.71710205078125 761.052734375 579.35943603515625 724.586181640625 678.822021484375 547.660400390625 692.948974609375 685.3751220703125 683.54022216796875 628.75677490234375 587.38153076171875 632.9892578125 597.611083984375 610.64910888671875 559.89056396484375 506.48980712890625 524.78460693359375 525.47393798828125 503.90533447265625 523.7244873046875 566.51416015625 538.7613525390625 527.88946533203125 497.62017822265625 470.3106689453125 479.28173828125 452.9013671875 467.704071044921875 489.351470947265625 517.01470947265625 527.64459228515625 519.98126220703125 516.16839599609375 485.37359619140625 470.11224365234375 497.16156005859375 484.9013671875 471.63153076171875 461.84014892578125 452.09014892578125 445.547607421875 479.086517333984375 460.600341796875 475.66778564453125 492.412139892578125 489.22052001953125 513.09918212890625 523.55328369140625 531.70068359375 560.16497802734375 627.469970703125 616.0379638671875 738.7578125 737.87359619140625 713.65362548828125 623.6524658203125 617.662109375 672.54083251953125 736.01702880859375 753.92401123046875 789.311767578125 813.1802978515625 785.00341796875 768.28863525390625 771.87017822265625 785.73980712890625 803.93707275390625 757.76190185546875 728.81689453125 716.94158935546875 734.23016357421875 752.09124755859375 760.5045166015625 759.198974609375 759.96630859375 749.0986328125 737.10601806640625 733.28912353515625 708.5731201171875 723.40814208984375 661.61224365234375 682.1134033203125 698.77606201171875 718.6275634765625 727.7772216796875 758.0911865234375 785.7052001953125 734.6734619140625 734.96484375 755.265869140625 745.302734375 747.82427978515625 749.01416015625 723.7261962890625 689.8809814453125 670.96258544921875 659.79962158203125 712.036865234375 717.23809814453125 675.84014892578125 702.0130615234375 673.1961669921875 590.35601806640625 537.04931640625 611.80615234375 617.80047607421875 617.17913818359375 643.8896484375 640.1116943359375 640.8900146484375 606.399658203125 602.04705810546875 632.91156005859375 619.03912353515625 586.81573486328125 561.18707275390625 542.12469482421875 532.8792724609375 513.279296875 483.982421875 474.41326904296875 470.5589599609375 467.48583984375 466.2244873046875 470.384918212890625 468.4586181640625 465.913818359375 469.10601806640625 473.223358154296875 505.978515625 488.19049072265625 470.079376220703125 475.3758544921875 473.264739990234375 476.01812744140625 490.181976318359375 490.5589599609375 488.036834716796875 488.721099853515625 513.91552734375 512.246826171875 497.883209228515625 492.645111083984375 489.432525634765625 477.33050537109375
731.64849853515625 696.82598876953125 602.76873779296875 701.96710205078125 554.61279296875 711.2216796875 688.0521240234375 538.6689453125 694.77154541015625 689.92510986328125 664.3662109375 641.20977783203125 598.75396728515625 653.9954833984375 623.12359619140625 648.22052001953125 576.49261474609375 654.311767578125 649.81634521484375 566.25225830078125 574.9285888671875 589.96600341796875 557.5765380859375 515.68878173828125 475.617919921875 500.57086181640625 507.23809814453125 491.14739990234375 467.036834716796875 485.678558349609375 569.2420654296875 582.58392333984375 570.14056396484375 544.0272216796875 521.6689453125 511.416656494140625 477.912689208984375 496.2755126953125 495.56689453125 519.26641845703125 542.7279052734375 510.88153076171875 521.79022216796875 517.569091796875 514.88262939453125 503.8055419921875 504.431976318359375 478.917236328125 493.88946533203125 511.552734375 542.00567626953125 614.7613525390625 661.45123291015625 669.74658203125 747.9500732421875 824.8634033203125 774.705810546875 770.232421875 756.1593017578125 776.86846923828125 746.54083251953125 737.54083251953125 790.3021240234375 795.76873779296875 787.8809814453125 759.86993408203125 752.88153076171875 779.2034912109375 772.96429443359375 742.79986572265625 735.1700439453125 732.638916015625 772.52099609375 774.41778564453125 785.55841064453125 773.4127197265625 747.5313720703125 761.04254150390625 747.0028076171875 725.34979248046875 715.0447998046875 702.99774169921875 674.91497802734375 661.2227783203125 685.31463623046875 679.71429443359375 690.07708740234375 743.16259765625 762.68084716796875 765.7738037109375 727.0623779296875 729.0872802734375 731.336181640625 726.7403564453125 734.294189453125 720.9869384765625 679.97845458984375 698.364501953125 684.452392578125 646.3231201171875 628.90814208984375 672.46881103515625 660.146240234375 604.8203125 572.1593017578125 585.1593017578125 584.10546875 656.3968505859375 640.2806396484375 643.48028564453125 634.45806884765625 602.033447265625 592.51641845703125 577.89849853515625 578.75738525390625 554.269287109375 534.59808349609375 510.985260009765625 516.33502197265625 510.051025390625 477.413482666015625 469.794219970703125 471.217681884765625 476.534027099609375 474.461456298828125 471.453521728515625 470.38153076171875 467.81121826171875 467.824249267578125 476.571441650390625 491.84466552734375 514.14691162109375 488.697265625 471.969390869140625 476.058380126953125 477.5272216796875 476.287994384765625 489.445587158203125 502.977325439453125 478.836181640625 483.57257080078125 509.01019287109375 523.35247802734375 497.412689208984375 496.802734375 503.60430908203125 488.01416015625
766.63775634765625 733.48016357421875 582.71087646484375 662.269287109375 532.13037109375 650.59979248046875 633.4744873046875 537.4041748046875 650.452392578125 664.52325439453125 646.16497802734375 653.1910400390625 629.272705078125 629.24658203125 648.54815673828125 622.783447265625 645.80499267578125 648.52606201171875 615.8282470703125 566.396240234375 595.2630615234375 537.58502197265625 493.204071044921875 507.890594482421875 517.22393798828125 518.3616943359375 507.01983642578125 481.967681884765625 486.172332763671875 498.374725341796875 579.68255615234375 563.82537841796875 529.15911865234375 522.24774169921875 510.192169189453125 510.829376220703125 475.812347412109375 482.233551025390625 484.1417236328125 524.06463623046875 592.17913818359375 585.38153076171875 535.62982177734375 521.8211669921875 503.6944580078125 496.27325439453125 517.94219970703125 511.3265380859375 492.97845458984375 511.589569091796875 533.17742919921875 569.4075927734375 629.16668701171875 630.498291015625 706.88677978515625 813.82257080078125 827.34521484375 809.24261474609375 813.63323974609375 836.89227294921875 792.98358154296875 735.58502197265625 775.4716796875 807.79876708984375 787.26470947265625 763.76251220703125 770.68707275390625 788.121337890625 758.64453125 738.32879638671875 725.6468505859375 739.096923828125 776.98638916015625 782.98187255859375 770.79193115234375 748.0555419921875 754.63470458984375 753.75738525390625 740.01873779296875 737.9410400390625 737.71258544921875 732.74322509765625 718.61279296875 726.31744384765625 756.28857421875 748.6644287109375 670.21600341796875 712.62078857421875 748.4620361328125 746.966552734375 745.50115966796875 711.43365478515625 708.35882568359375 710.80328369140625 705.66497802734375 710.24261474609375 734.7947998046875 742.0975341796875 722.1103515625 732.005126953125 740.76019287109375 726.8865966796875 690.94384765625 632.4603271484375 564.8406982421875 545.35711669921875 549.89739990234375 576.09124755859375 619.10260009765625 643.2392578125 619.34466552734375 584.81463623046875 581.64453125 561.20745849609375 541.50341796875 518.051025390625 508.036834716796875 495.170074462890625 493.19500732421875 478.366790771484375 468.9854736328125 476.08502197265625 483.801025390625 483.040252685546875 478.0606689453125 479.19049072265625 472.21484375 471.69671630859375 475.29534912109375 491.47845458984375 490.298187255859375 501.6051025390625 490.73187255859375 477.41326904296875 477.54931640625 477.01361083984375 478.133209228515625 490.41552734375 509.249420166015625 487.524383544921875 483.221649169921875 493.9603271484375 525.4715576171875 505.867340087890625 501.63604736328125 503.057830810546875 492.2579345703125
752.7613525390625 664.19384765625 614.07257080078125 553.977294921875 571.22503662109375 640.5975341796875 496.485260009765625 499.66156005859375 553.54705810546875 611.636474609375 631.864501953125 643.5113525390625 654.97564697265625 636.31463623046875 654.4093017578125 638.86566162109375 669.89288330078125 624.61053466796875 629.92633056640625 621.70806884765625 530.5888671875 532.45184326171875 549.94219970703125 548.0697021484375 535.99090576171875 515.83447265625 498.3565673828125 491.241485595703125 547.40533447265625 586.188232421875 563.22332763671875 534.89398193359375 495.720672607421875 474.666107177734375 488.63037109375 501.646270751953125 473.2720947265625 469.583892822265625 458.465972900390625 515.08331298828125 532.89910888671875 561.75677490234375 546.36505126953125 527.6510009765625 520.7789306640625 495.215423583984375 521.6134033203125 544.59356689453125 528.87640380859375 509.532867431640625 516.1689453125 533.850341796875 555.7052001953125 597.802734375 736.430908203125 850.20465087890625 827.42401123046875 794.2279052734375 793.1575927734375 788.4869384765625 839.36053466796875 768.065185546875 741.4954833984375 798.45916748046875 781.621337890625 746.1004638671875 786.01470947265625 777.39849853515625 750.1337890625 726.95635986328125 736.9359130859375 769.10089111328125 778.667236328125 795.00677490234375 754.2579345703125 743.38604736328125 736.22125244140625 743.45068359375 741.7069091796875 753.512451171875 758.04193115234375 760.94329833984375 741.14849853515625 745.6162109375 782.76873779296875 742.18310546875 682.99774169921875 694.32171630859375 720.3565673828125 734.3486328125 740.12640380859375 731.80780029296875 741.0255126953125 743.90020751953125 745.12530517578125 743.92291259765625 740.58331298828125 725.83502197265625 731.14923095703125 712.9444580078125 690.4886474609375 638.28399658203125 613.69329833984375 563.3406982421875 574.41668701171875 540.1978759765625 541.48809814453125 572.337890625 615.4365234375 631.69512939453125 598.33447265625 567.88323974609375 552.88604736328125 536.234130859375 533.39288330078125 511.114501953125 509.640594482421875 518.59295654296875 503.225067138671875 469.957489013671875 468.96630859375 479.71881103515625 486.448974609375 489.16497802734375 483.672332763671875 479.612823486328125 482.46429443359375 475.51983642578125 488.09808349609375 510.082763671875 501.396820068359375 500.897796630859375 500.821990966796875 492.437652587890625 480.98468017578125 482.9886474609375 479.959747314453125 489.081634521484375 514.399658203125 497.03741455078125 483.198974609375 492.819732666015625 529.38330078125 519.9779052734375 507.27947998046875 503.20068359375 492.404754638671875
685.76019287109375 708.73126220703125 554.12298583984375 516.27947998046875 609.08502197265625 591.8486328125 498.225616455078125 668.48980712890625 673.31689453125 620.421630859375 616.544189453125 640.77777099609375 656.280029296875 645.08392333984375 657.28515625 655.7216796875 667.2103271484375 645.1961669921875 625.713134765625 609.322021484375 531.5313720703125 569.38604736328125 565.63604736328125 554.20184326171875 537.9268798828125 515.0062255859375 506.197265625 509.233001708984375 604.14849853515625 632.05841064453125 534.41668701171875 488.105438232421875 527.83624267578125 501.72674560546875 480.94329833984375 479.654205322265625 485.005096435546875 487.185943603515625 451.10430908203125 497.98016357421875 572.21600341796875 565.79364013671875 551.4200439453125 549.029052734375 545.03118896484375 508.59637451171875 525.35772705078125 556.93194580078125 539.67120361328125 525.96826171875 533.52667236328125 615.4427490234375 634.42633056640625 583.24884033203125 700.851318359375 829.3599853515625 823.73638916015625 805.73809814453125 796.75848388671875 766.3072509765625 768.80328369140625 786.15020751953125 803.19952392578125 754.3372802734375 742.966552734375 782.41986083984375 770.4779052734375 769.9268798828125 744.70068359375 726.1292724609375 740.213134765625 783.6944580078125 789.2596435546875 783.73187255859375 742.58447265625 753.7437744140625 758.14752197265625 771.748291015625 735.89794921875 765.25054931640625 762.702392578125 784.9461669921875 776.0731201171875 753.170654296875 798.0703125 740.8441162109375 717.7528076171875 667.3896484375 699.33221435546875 738.8775634765625 737.48529052734375 741.01641845703125 746.47845458984375 752.6241455078125 745.6927490234375 747.22332763671875 732.59521484375 732.42572021484375 702.30780029296875 697.36395263671875 694.85430908203125 646.79815673828125 586.60711669921875 611.8072509765625 525.62298583984375 544.5289306640625 541.20635986328125 599.7386474609375 619.06463623046875 613.145751953125 573.29254150390625 542.18988037109375 534.0220947265625 525.63262939453125 534.59979248046875 525.44158935546875 497.2947998046875 520.28741455078125 483.910430908203125 469.1751708984375 477.906494140625 487.138336181640625 488.603729248046875 487.291961669921875 489.49603271484375 491.17742919921875 481.6734619140625 475.865081787109375 484.63946533203125 503.859405517578125 510.333892822265625 512.614990234375 508.634918212890625 488.747161865234375 482.546478271484375 484.240936279296875 483.058380126953125 488.100921630859375 515.91607666015625 506.119049072265625 480.65704345703125 491.76190185546875 522.91229248046875 530.44384765625 512.1575927734375 509.452392578125 498.818023681640625
656.3690185546875 714.17291259765625 639.51873779296875 479.091827392578125 597.87188720703125 562.27606201171875 476.53118896484375 514.07598876953125 571.232421875 625.1788330078125 645.34808349609375 664.14227294921875 654.5986328125 643.87701416015625 673.688232421875 663.21429443359375 659.1400146484375 649.98358154296875 627.09918212890625 619.5555419921875 526.3519287109375 590.37811279296875 571.71600341796875 560.35882568359375 539.2528076171875 517.9376220703125 515.12298583984375 581.77606201171875 643.572021484375 580.93084716796875 527.77154541015625 527.11566162109375 577.14752197265625 544.536865234375 496.642303466796875 499.87188720703125 510.74432373046875 539.55157470703125 524.10711669921875 470.188201904296875 533.93310546875 550.28570556640625 525.70977783203125 539.62603759765625 566.46087646484375 529.36962890625 538.23529052734375 592.132080078125 616.61505126953125 579.84808349609375 553.83221435546875 587.86846923828125 674.611083984375 597.82879638671875 635.64111328125 739.80328369140625 826.39794921875 804.663818359375 790.27325439453125 765.79705810546875 758.46087646484375 777.87640380859375 812.78118896484375 803.579345703125 757.39794921875 785.599853515625 769.77777099609375 754.75 731.78460693359375 721.1859130859375 766.18365478515625 797.802734375 792.47674560546875 771.9869384765625 755.2193603515625 769.2947998046875 776.47210693359375 770.35546875 782.38494873046875 764.15191650390625 753.638916015625 775.95916748046875 757.37530517578125 741.4796142578125 757.8214111328125 709.07257080078125 714.60205078125 704.50115966796875 671.0623779296875 743.90985107421875 714.01361083984375 731.09521484375 750.11846923828125 754.5555419921875 726.09808349609375 717.20013427734375 709.9603271484375 699.36224365234375 668.1126708984375 673.21771240234375 664.4189453125 627.13494873046875 619.0958251953125 609.08447265625 516.445556640625 540.03118896484375 570.44842529296875 584.5521240234375 589.43707275390625 573.01739501953125 553.3123779296875 560.98638916015625 548.97052001953125 534.78460693359375 510.814056396484375 500.857696533203125 492.4013671875 481.154205322265625 473.4903564453125 475.1610107421875 485.88153076171875 493.373016357421875 494.065765380859375 500.80950927734375 512.653076171875 491.9761962890625 497.903076171875 479.82086181640625 482.099761962890625 489.6275634765625 505.67913818359375 519.33160400390625 520.31463623046875 493.72052001953125 486.921783447265625 482.85205078125 483.231292724609375 489.613372802734375 515.0589599609375 511.26361083984375 485.750579833984375 511.642852783203125 498.110931396484375 522.2386474609375 517.1468505859375 508.90191650390625 501.981292724609375
633.71429443359375 673.88616943359375 676.26885986328125 499.145751953125 517.806640625 468.825775146484375 511.476776123046875 644.10919189453125 641.806640625 595.23138427734375 625.6864013671875 658.00872802734375 644.57318115234375 666.04644775390625 678.95526123046875 661.52557373046875 663.062744140625 644.0667724609375 608.1341552734375 556.107421875 525.96368408203125 586.08709716796875 597.64923095703125 571.05169677734375 544.6202392578125 541.0313720703125 556.3856201171875 550.736328125 544.59521484375 555.18060302734375 531.9901123046875 541.73052978515625 589.75909423828125 559.86761474609375 534.0006103515625 588.832763671875 584.5975341796875 584.021484375 550.3367919921875 535.743896484375 499.348419189453125 517.44659423828125 533.1219482421875 559.59490966796875 564.5284423828125 553.225341796875 553.90301513671875 574.88616943359375 705.48895263671875 659.40533447265625 614.56793212890625 594.57666015625 667.63006591796875 651.31591796875 655.55682373046875 653.45758056640625 745.95758056640625 793.6004638671875 830.7921142578125 822.78631591796875 865.83740234375 817.7584228515625 800.09521484375 815.1800537109375 801.00579833984375 750.67279052734375 760.42626953125 733.07318115234375 738.6510009765625 719.03021240234375 770.05572509765625 803.127197265625 786.114990234375 755.0313720703125 763.32867431640625 759.842041015625 778.9613037109375 775.8687744140625 818.38385009765625 788.21197509765625 762.6295166015625 775.33392333984375 770.99188232421875 718.66436767578125 715.26885986328125 696.60162353515625 701.46746826171875 694.86138916015625 641.94134521484375 709.26885986328125 736.78515625 755.789794921875 750.2125244140625 719.6771240234375 671.7769775390625 701.11383056640625 702.71429443359375 681.50177001953125 670.77337646484375 647.547607421875 654.329833984375 653.61151123046875 628.90826416015625 552.8751220703125 509.020904541015625 554.03887939453125 589.94830322265625 600.10223388671875 587.03424072265625 574.88043212890625 561.4732666015625 553.94482421875 544.6126708984375 534.8873291015625 519.96978759765625 514.13934326171875 489.0667724609375 474.9471435546875 473.55401611328125 484.418121337890625 495.85009765625 500.74737548828125 509.022064208984375 519.4755859375 522.07489013671875 495.151580810546875 507.031951904296875 497.695709228515625 484.512786865234375 489.07086181640625 491.6265869140625 510.093994140625 523.1417236328125 501.745635986328125 483.29327392578125 486.844940185546875 486.303131103515625 494.072601318359375 524.35943603515625 521.35247802734375 497.482574462890625 509.9163818359375 511.383697509765625 506.30950927734375 518.00347900390625 514.09698486328125 504.347259521484375
634.6048583984375 596.05499267578125 595.98980712890625 526.4365234375 399.2896728515625 469.99603271484375 571.50848388671875 675.3599853515625 644.5975341796875 617.3060302734375 650.76702880859375 672.9620361328125 643.082763671875 673.57086181640625 680.24151611328125 663.40814208984375 677.14453125 662.899658203125 598.6258544921875 521.14288330078125 615.96514892578125 612.51641845703125 608.77154541015625 580.00738525390625 567.98126220703125 591.8837890625 581.86505126953125 600.99774169921875 557.4200439453125 562.117919921875 562.332763671875 534.54931640625 597.29266357421875 581.487548828125 558.23529052734375 582.794189453125 588.80047607421875 586.56573486328125 579.81805419921875 564.35601806640625 523.76416015625 513.25225830078125 524.59918212890625 541.02557373046875 551.596923828125 564.582763671875 570.7420654296875 588.67572021484375 637.994873046875 790.7437744140625 815.05047607421875 708.55950927734375 708.8865966796875 782.82598876953125 809.93670654296875 667.0572509765625 765.10150146484375 815.4393310546875 836.62982177734375 852.3265380859375 878.26641845703125 865.7244873046875 824.5810546875 819.888916015625 794.38323974609375 734.36993408203125 777.85089111328125 758.8968505859375 738.06744384765625 730.8548583984375 776.7052001953125 797.93310546875 783.84521484375 766.97393798828125 755.39227294921875 760.6275634765625 786.17535400390625 797.96881103515625 794.987548828125 803.91326904296875 788.082763671875 756.95635986328125 745.59295654296875 738.4603271484375 735.12811279296875 712.99658203125 714.132080078125 665.86932373046875 643.9637451171875 710.267578125 747.05499267578125 744.90533447265625 726.05615234375 690.62469482421875 654.47393798828125 661.054443359375 674.89910888671875 663.6689453125 652.3106689453125 641.5975341796875 680.86676025390625 675.713134765625 628.20635986328125 545.9296875 512.251708984375 571.7386474609375 586.53173828125 572.15985107421875 550.5220947265625 540.105712890625 532.34466552734375 518.6365966796875 511.6734619140625 529.5289306640625 493.71484375 475.40362548828125 473.797607421875 471.947845458984375 480.534576416015625 483.763031005859375 498.473297119140625 509.7227783203125 519.5465087890625 519.78399658203125 509.493194580078125 503.790802001953125 512.01641845703125 511.063507080078125 491.446136474609375 483.25396728515625 484.229034423828125 500.861785888671875 528.061767578125 513.34918212890625 494.052154541015625 492.550445556640625 491.650787353515625 502.064056396484375 537.35430908203125 532.75738525390625 509.129241943359375 515.836181640625 517.670166015625 514.41778564453125 522.85772705078125 519.8214111328125 511.522674560546875
591.772705078125 525.10089111328125 531.899658203125 439.7930908203125 424.849212646484375 612.41607666015625 659.8203125 674.3089599609375 656.62530517578125 653.56390380859375 675.7041015625 664.32879638671875 641.8231201171875 665.49774169921875 681.44049072265625 668.087890625 670.6978759765625 667.2261962890625 631.061767578125 517.82366943359375 623.37396240234375 610.4461669921875 595.7965087890625 583.43255615234375 603.58392333984375 663.181396484375 654.78460693359375 606.90704345703125 605.579345703125 622.12811279296875 584.7720947265625 546.21881103515625 574.96923828125 600.17633056640625 595.0396728515625 592.75567626953125 587.297607421875 588.188232421875 562.1383056640625 547.48297119140625 515.63604736328125 530.40643310546875 541.420654296875 564.08477783203125 563.74322509765625 572.15478515625 598.11279296875 664.03289794921875 743.339599609375 868.72674560546875 922.60430908203125 834.52667236328125 865.07427978515625 883.92742919921875 795.05572509765625 683.47052001953125 771.2579345703125 824.78228759765625 796.0572509765625 823.21429443359375 873.72052001953125 845.97393798828125 844.95635986328125 800.9144287109375 797.61737060546875 736.1219482421875 787.24432373046875 778.403076171875 738.022705078125 753.1627197265625 789.04364013671875 806.9903564453125 780.2369384765625 773.88433837890625 763.0958251953125 754.96429443359375 767.81707763671875 801.7789306640625 773.7227783203125 750.61846923828125 734.966552734375 726.2216796875 736.839599609375 718.96826171875 724.801025390625 715.33221435546875 694.7720947265625 646.0098876953125 673.14227294921875 711.403076171875 736.74945068359375 737.269287109375 715.88433837890625 658.32537841796875 633.60089111328125 650.46600341796875 687.85772705078125 669.88604736328125 655.56622314453125 675.4393310546875 705.06463623046875 651.81011962890625 587.10772705078125 549.65362548828125 510.5606689453125 540.9779052734375 552.017578125 542.46429443359375 551.49090576171875 535.0667724609375 517.48358154296875 506.359405517578125 495.421783447265625 487.184814453125 476.362823486328125 480.113372802734375 477.4552001953125 477.416656494140625 482.90985107421875 482.247161865234375 499.3948974609375 514.72222900390625 521.67401123046875 517.40081787109375 502.496612548828125 511.69671630859375 520.0623779296875 528.11224365234375 503.683685302734375 486.012481689453125 488.354888916015625 489.756683349609375 514.63775634765625 525.420654296875 515.1751708984375 496.1337890625 492.995452880859375 505.70123291015625 535.8951416015625 547.82879638671875 524.50054931640625 514.34521484375 524.36468505859375 508.286834716796875 525.80157470703125 519.74261474609375 516.42572021484375
407.6082763671875 399.787994384765625 407.736968994140625 398.394561767578125 484.599761962890625 583.47564697265625 706.78741455078125 685.48980712890625 682.4041748046875 693.03717041015625 690.21881103515625 664.20977783203125 648.3299560546875 652.947265625 675.01702880859375 673.20013427734375 685.83392333984375 679.39849853515625 630.11505126953125 514.85260009765625 599.05169677734375 608.5623779296875 576.60260009765625 569.727294921875 593.60089111328125 639.20916748046875 654.7789306640625 669.9569091796875 670.70184326171875 635.08050537109375 609.91949462890625 578.1513671875 554.7967529296875 598.7120361328125 600.56689453125 599.46484375 600.23468017578125 568.7041015625 559.2034912109375 532.1309814453125 513.39569091796875 529.646240234375 550.13720703125 565.18817138671875 593.019287109375 641.15985107421875 653.3282470703125 752.068603515625 865.1292724609375 886.885498046875 871.6134033203125 899.86962890625 909.62017822265625 847.76812744140625 810.0006103515625 765.7783203125 717.934814453125 748.315185546875 757.4393310546875 796.8299560546875 814.22564697265625 809.81292724609375 842.663818359375 792.4393310546875 809.95806884765625 745.203857421875 758.71600341796875 738.27325439453125 748.90533447265625 801.16552734375 811.3900146484375 830.05950927734375 777.6190185546875 783.695556640625 778.3883056640625 774.4110107421875 758.970947265625 780.93878173828125 760.58502197265625 736.78399658203125 728.7879638671875 713.9444580078125 733.44158935546875 722.01702880859375 705.33160400390625 697.2041015625 668.864501953125 623.44134521484375 637.9461669921875 698.06292724609375 723.87701416015625 722.36224365234375 662.69329833984375 630.621337890625 636.318603515625 687.84637451171875 735.63494873046875 720.19384765625 715.12603759765625 703.322021484375 680.00677490234375 616.17633056640625 566.55047607421875 549.02606201171875 524.85943603515625 515.54986572265625 531.5079345703125 531.8140869140625 542.6190185546875 537.29498291015625 525.31634521484375 513.022705078125 493.46484375 479.431396484375 479.78173828125 480.83843994140625 481.5589599609375 481.61053466796875 489.921783447265625 494.97674560546875 500.814178466796875 522.948974609375 526.0555419921875 516.68878173828125 524.67236328125 508.428009033203125 529.65643310546875 540.34124755859375 497.2420654296875 495.630950927734375 489.628692626953125 490.1724853515625 499.784027099609375 530.818603515625 522.92291259765625 499.670074462890625 494.6751708984375 506.2896728515625 536.822021484375 543.28173828125 520.91607666015625 508.480712890625 532.612060546875 514.0941162109375 533.00225830078125 524.92572021484375 522.22052001953125
527.135498046875 538.7454833984375 411.61846923828125 482.932525634765625 578.6593017578125 670.2041015625 718.88433837890625 687.29083251953125 683.0924072265625 701.51507568359375 687.4727783203125 667.95068359375 656.18988037109375 650.947265625 664.99151611328125 668.36224365234375 673.51019287109375 674.6859130859375 642.7069091796875 573.44158935546875 524.70208740234375 561.64288330078125 577.50909423828125 625.219970703125 595.6944580078125 654.70635986328125 641.65875244140625 678.88775634765625 669.46600341796875 650.53228759765625 624.51470947265625 584.59014892578125 580.0621337890625 593.6700439453125 628.42401123046875 618.7579345703125 573.7755126953125 576.88720703125 553.16778564453125 540.76702880859375 516.2879638671875 550.44219970703125 577.5045166015625 583.24737548828125 647.52435302734375 762.59918212890625 786.57257080078125 775.9189453125 829.0521240234375 848.15704345703125 844.572021484375 846.02099609375 912.044189453125 927.89288330078125 865.96112060546875 778.9710693359375 838.88433837890625 828.93310546875 820.32879638671875 780.27606201171875 790.762451171875 773.6082763671875 776.30047607421875 816.371337890625 794.9041748046875 784.633544921875 737.385498046875 716.184814453125 760.5748291015625 784.62811279296875 807.03570556640625 815.603759765625 784.20013427734375 792.0465087890625 773.4603271484375 775.92401123046875 757.85711669921875 736.69158935546875 723.58221435546875 714.70465087890625 720.99090576171875 725.0255126953125 719.9144287109375 698.49945068359375 659.90020751953125 686.16949462890625 675.649658203125 643.26885986328125 622.019287109375 684.8424072265625 707.99774169921875 672.998291015625 623.554443359375 643.8265380859375 696.5640869140625 719.51019287109375 716.95294189453125 699.22900390625 661.31414794921875 620.1065673828125 568.96881103515625 552.09295654296875 542.55780029296875 520.39453125 516.36566162109375 527.04022216796875 535.7193603515625 538.10882568359375 520.19158935546875 497.368743896484375 487.817474365234375 485.431976318359375 483.016448974609375 478.002838134765625 477.874725341796875 479.867919921875 482.496612548828125 482.012481689453125 496.747161865234375 506.179718017578125 507.336822509765625 518.3865966796875 525.80950927734375 523.59979248046875 533.410400390625 508.7069091796875 519.92462158203125 533.670654296875 507.079376220703125 487.217132568359375 483.02777099609375 492.46051025390625 499.065185546875 532.6258544921875 521.91552734375 500.96429443359375 499.187652587890625 505.451812744140625 543.6644287109375 541.3565673828125 517.947265625 513.93988037109375 541.02325439453125 518.04254150390625 532.4013671875 528.6689453125 521.5703125
