ncols        147
nrows        165
xllcorner    3448500.33127
yllcorner    5329100.16733
cellsize     1000.000000000000
NODATA_value  -9999
80 69 74 75 75 69 71 69 71 17 67 63 57 64 76 82 81 87 90 78 90 90 79 69 49 85 82 163 181 158 143 144 167 199 203 226 290 360 355 319 332 420 417 311 395 347 302 308 381 326 295 329 421 356 327 312 326 471 380 285 259 227 238 467 410 339 238 440 310 217 221 348 327 308 307 359 414 383 377 380 374 388 375 378 301 280 268 301 330 324 332 290 272 293 303 276 235 254 267 272 208 169 165 175 182 301 288 246 255 253 274 295 303 307 320 271 305 296 286 298 288 286 280 261 268 275 274 282 287 277 284 271 280 285 282 279 282 286 290 289 299 298 310 319 322 323 325
73 68 72 74 73 68 69 65 74 68 64 65 61 55 74 82 79 88 88 81 90 80 74 74 54 76 89 123 199 142 137 156 185 214 250 235 263 356 332 304 341 354 404 294 360 354 286 299 405 357 332 391 426 383 341 296 285 415 404 331 284 253 296 411 474 388 290 420 347 231 223 236 315 400 365 357 396 391 383 373 382 383 342 313 298 287 268 308 356 343 318 297 331 338 323 299 252 294 260 228 199 173 163 181 213 257 299 305 293 285 313 311 297 292 310 300 299 296 287 295 280 274 273 273 274 279 283 287 295 267 274 271 270 279 279 284 282 295 291 292 294 306 323 331 325 321 313
64 71 52 63 72 72 73 52 52 68 71 73 68 74 71 86 87 86 86 66 89 79 77 77 75 63 86 103 128 127 141 182 198 240 296 321 304 363 347 275 279 339 376 276 342 290 269 314 424 393 374 437 404 392 349 297 259 310 375 328 284 284 357 489 464 434 335 418 418 322 234 234 315 389 405 392 388 392 385 377 378 384 337 331 338 314 278 283 335 330 317 312 333 357 332 325 280 281 293 249 236 185 169 160 215 265 301 295 302 299 307 296 294 286 310 297 302 297 283 306 288 284 273 279 292 289 282 268 271 267 268 287 285 282 303 282 285 289 290 289 303 319 324 329 322 321 314
58 50 22 67 74 75 75 65 75 74 76 77 64 48 84 87 90 87 72 50 89 89 77 72 51 72 93 101 120 146 152 253 303 335 372 422 350 387 384 277 237 267 332 262 272 258 257 358 376 367 430 385 382 339 312 297 262 246 372 347 389 332 428 489 467 397 370 449 428 441 307 243 255 414 383 361 396 383 395 379 377 405 353 348 347 323 298 297 357 349 354 353 370 352 321 307 300 285 306 335 300 258 200 165 180 247 259 259 283 281 277 269 316 348 313 285 286 287 297 322 298 254 253 289 299 289 262 266 275 288 287 287 291 285 302 302 294 298 295 295 302 312 302 317 319 340 348
46 64 56 70 74 75 64 72 76 69 75 71 71 72 86 85 80 91 85 71 89 87 82 78 75 79 91 116 130 133 160 268 278 348 386 445 439 382 378 356 230 243 326 257 242 233 279 388 303 309 449 354 361 297 295 267 241 236 286 326 375 468 447 496 477 434 404 433 393 362 319 265 251 255 356 353 376 390 388 408 418 396 351 350 358 349 314 308 335 355 362 351 360 358 331 291 327 308 305 289 300 245 203 170 165 199 253 213 218 231 255 296 330 334 294 249 243 279 308 323 297 258 265 304 310 297 255 266 302 309 311 289 295 296 311 308 306 317 323 312 310 316 324 325 287 325 344
72 63 55 77 74 80 64 73 78 61 55 64 71 59 87 88 80 94 86 63 89 86 81 41 59 64 91 156 171 155 159 177 206 260 331 405 438 348 362 408 226 214 310 350 216 214 319 300 269 309 441 339 338 305 248 222 223 232 286 365 494 503 501 500 467 440 426 435 404 427 352 288 272 273 333 340 352 391 398 386 368 343 314 314 328 345 338 311 322 350 346 349 363 349 326 274 281 257 236 230 239 237 189 177 168 172 202 209 230 279 304 292 291 337 303 233 236 276 335 324 288 240 257 281 310 285 247 291 299 286 306 296 298 304 321 311 318 335 328 329 319 343 350 343 300 334 335
75 69 68 73 81 71 73 78 74 64 67 62 46 63 86 77 75 78 77 63 87 83 82 84 59 85 79 144 211 241 205 187 201 226 264 366 419 328 367 323 218 216 318 291 205 211 314 334 251 297 392 321 307 312 230 204 224 287 330 352 412 520 499 498 475 445 442 437 418 430 353 331 321 298 315 321 352 368 368 345 366 330 305 306 320 339 349 329 326 330 343 363 338 326 311 276 255 235 228 217 205 195 188 229 133 170 199 266 294 307 314 272 290 329 316 229 241 301 338 321 242 240 221 227 235 242 243 302 323 315 310 307 310 315 327 333 339 339 335 343 336 352 355 357 350 349 317
74 64 75 78 76 63 72 76 79 73 68 74 65 77 86 82 77 79 84 56 -1 80 74 78 74 71 90 138 218 234 280 218 233 263 313 355 367 300 363 297 206 215 300 260 189 283 358 290 229 303 361 284 299 243 182 205 313 333 392 357 470 525 492 474 450 437 427 448 430 434 387 334 323 334 323 327 330 346 363 336 340 340 296 302 314 323 355 351 330 322 338 338 347 308 298 315 317 309 261 239 199 179 201 261 165 165 233 258 291 283 291 269 310 303 286 212 247 292 296 292 227 223 221 225 227 239 290 285 310 324 313 318 320 322 331 334 340 325 361 364 366 373 374 344 342 356 324
57 35 51 73 65 73 75 75 78 82 69 75 81 79 87 84 80 80 79 46 85 79 87 72 61 58 77 133 184 212 263 269 259 276 388 344 371 275 366 230 198 265 364 183 186 326 289 224 206 312 363 258 296 229 173 230 247 288 481 464 532 501 487 460 457 451 418 421 438 426 364 345 347 338 325 331 342 377 338 316 320 335 304 285 303 325 338 330 328 310 319 337 319 281 279 338 296 265 264 229 205 205 203 312 191 165 185 257 222 225 220 211 296 254 287 205 212 220 276 260 222 226 252 245 227 238 248 256 269 295 307 308 314 319 345 340 344 352 362 372 371 381 365 352 334 326 319
62 18 45 66 71 71 69 76 78 80 56 67 78 79 87 78 77 81 81 50 83 73 76 85 63 64 89 143 244 220 280 311 337 342 321 299 336 264 296 192 201 379 307 176 186 343 295 215 187 302 324 244 211 191 170 205 323 287 312 460 499 490 488 482 479 479 423 397 435 411 385 365 334 315 345 349 369 351 320 313 309 316 324 295 300 311 322 320 315 304 313 332 319 284 261 254 296 256 237 213 217 254 220 251 218 178 173 179 186 188 198 234 250 257 318 204 205 202 215 211 214 229 321 312 233 232 257 312 272 285 286 291 303 313 321 330 336 337 354 364 369 382 371 364 362 335 318
35 29 48 60 75 81 74 76 73 77 71 71 79 79 76 74 74 88 81 76 83 85 78 85 70 76 100 134 289 271 291 264 282 381 304 268 248 263 173 187 245 307 319 163 165 275 321 214 165 288 252 182 154 160 155 192 345 319 314 347 379 447 502 495 464 479 436 391 413 410 397 352 325 309 311 330 330 329 324 308 303 307 321 289 287 302 306 309 295 297 314 346 341 324 273 246 242 228 217 213 222 281 236 250 263 213 194 190 186 198 188 213 244 332 346 212 205 241 241 260 292 347 354 283 234 244 297 343 350 342 315 291 312 335 348 365 364 373 362 376 376 370 362 352 344 329 316
40 46 63 53 72 71 70 63 73 76 80 67 71 85 73 77 74 80 80 82 82 83 89 88 79 88 104 128 185 205 212 224 287 357 345 253 224 274 167 165 312 263 276 156 159 275 389 311 152 167 135 136 143 161 166 202 255 308 453 416 413 484 503 466 443 451 396 362 386 397 366 351 322 300 298 313 313 309 314 312 297 304 303 308 282 292 297 291 289 299 344 333 358 309 289 246 234 234 246 217 249 282 272 287 265 224 190 203 208 251 185 197 195 204 205 195 195 218 238 293 347 339 288 269 244 241 293 363 358 363 327 315 315 347 351 381 389 386 382 375 381 363 329 328 335 324 316
64 13 71 42 67 68 68 62 73 72 86 70 62 82 83 75 79 77 66 70 44 84 76 84 86 87 105 129 151 171 186 223 270 343 294 241 210 258 168 163 152 259 185 138 158 350 259 219 137 127 125 195 316 380 442 314 320 314 444 528 520 484 450 443 403 436 378 342 343 369 356 347 338 297 283 295 299 287 296 315 292 285 295 295 288 280 291 294 299 325 323 329 345 345 297 275 289 252 279 237 266 320 306 270 241 221 220 199 259 292 223 201 179 179 182 186 204 217 215 305 340 343 324 288 325 257 258 260 312 371 347 356 351 371 366 371 392 386 394 393 377 359 354 348 327 317 313
47 32 72 77 56 69 69 73 78 80 81 81 84 85 79 83 79 51 72 73 45 75 66 72 82 84 100 110 248 289 244 245 305 336 294 248 204 202 361 203 146 146 206 128 192 340 246 142 115 120 122 173 251 353 491 462 475 466 466 521 474 481 416 377 376 399 381 324 335 369 352 330 302 290 274 272 311 290 296 296 284 281 286 294 274 278 276 296 323 318 317 330 334 331 318 302 320 297 291 268 269 299 305 269 262 236 243 199 262 304 221 250 219 215 235 262 286 280 216 313 361 359 355 315 364 268 280 257 262 337 367 372 384 383 404 374 371 391 402 384 370 364 360 342 321 314 307
68 63 64 77 66 71 67 57 79 72 54 74 69 81 81 73 82 73 79 83 85 88 64 80 92 60 99 106 163 257 386 341 336 311 386 345 215 189 296 359 294 136 125 121 112 122 119 117 115 125 116 121 251 313 472 474 474 451 472 481 450 405 394 349 353 371 360 300 344 340 352 329 330 282 267 256 293 285 291 285 276 277 281 268 251 260 298 311 318 316 328 330 309 326 334 334 339 335 313 303 338 337 324 293 269 253 229 212 224 286 237 280 234 239 266 326 306 294 245 264 354 369 366 336 370 273 277 352 263 268 276 280 282 343 340 348 372 401 391 394 384 374 357 344 333 325 321
72 69 77 74 77 71 72 64 68 75 61 71 70 74 78 74 81 76 76 86 90 87 89 85 87 72 94 103 117 258 324 338 256 241 342 263 218 183 329 298 338 204 127 109 113 98 119 131 143 216 119 97 249 350 424 466 460 371 454 453 400 381 325 332 360 354 332 279 314 333 311 306 306 277 270 260 277 271 266 293 254 280 256 246 253 277 310 308 308 310 331 314 303 328 327 324 318 328 324 340 323 336 330 298 281 262 288 286 230 244 252 255 243 225 298 313 348 259 257 294 355 398 386 360 402 312 291 374 378 392 312 280 279 276 317 382 384 396 395 396 395 374 381 369 376 397 373
76 78 75 79 77 79 80 76 68 66 76 71 68 61 79 25 74 76 76 79 83 86 89 94 91 87 96 93 107 183 235 312 180 216 300 251 194 171 205 248 355 390 246 93 118 118 245 153 173 376 236 95 192 410 439 430 431 327 371 344 319 348 293 323 326 329 327 266 285 309 316 295 292 285 286 262 254 247 247 277 247 245 239 244 295 294 318 302 295 312 302 290 305 301 304 315 312 327 319 331 318 308 331 332 311 274 294 286 254 246 296 270 264 236 297 340 343 264 302 319 325 410 390 391 413 364 309 310 412 413 407 402 404 290 286 399 409 397 386 374 389 388 406 437 435 436 461
79 82 78 75 77 80 81 77 72 75 77 64 74 65 79 32 59 74 81 62 78 73 89 92 84 82 83 103 109 157 233 215 146 137 203 241 193 155 242 306 273 234 191 99 226 308 345 204 201 357 215 122 230 250 287 381 350 287 260 275 314 340 290 280 302 298 291 245 244 292 301 292 283 301 313 296 291 263 233 246 238 239 243 325 324 335 312 315 286 290 302 282 323 302 294 296 306 316 306 309 315 317 316 322 339 323 339 312 268 267 314 312 309 242 279 317 351 261 295 355 350 422 408 400 413 410 413 332 393 414 435 418 413 314 287 379 394 389 391 382 378 369 410 438 465 446 423
77 84 82 80 82 80 85 81 63 76 70 80 80 76 70 67 83 76 80 62 52 51 91 93 84 82 78 102 104 105 103 105 100 107 107 191 172 141 174 209 290 121 111 111 362 401 311 221 221 354 209 124 125 120 128 277 308 208 207 258 305 305 300 275 242 303 229 234 250 264 288 276 274 304 291 293 274 273 236 217 229 234 308 323 341 345 311 284 280 282 278 278 310 302 281 281 294 296 303 297 313 339 313 342 325 351 346 333 295 304 322 342 337 294 295 350 378 270 297 383 386 418 415 417 415 420 412 355 388 418 429 426 419 385 301 340 400 377 370 372 370 390 414 460 437 443 432
81 83 88 76 79 77 79 79 64 74 69 78 75 79 26 66 83 85 82 69 63 70 86 86 89 93 90 96 102 104 103 218 136 131 102 102 205 141 108 109 172 104 111 222 371 379 334 328 299 356 301 130 131 147 124 160 173 175 193 301 273 259 279 273 235 273 217 240 238 264 286 267 288 305 290 272 262 278 238 214 223 269 304 329 335 310 295 268 264 292 283 269 289 269 271 281 292 301 258 266 308 287 295 295 310 374 370 353 317 335 355 368 320 313 349 374 358 280 305 404 428 433 418 421 438 428 415 391 412 419 386 436 431 418 298 307 334 347 371 364 364 387 429 456 438 426 418
84 87 87 82 81 82 80 78 73 81 80 81 24 75 57 74 73 83 68 78 79 78 76 91 96 92 92 95 98 160 226 418 347 386 113 93 109 125 82 103 110 102 226 252 327 345 357 354 335 333 331 325 319 257 121 124 123 162 234 305 266 228 228 215 191 189 210 229 246 284 253 262 290 305 310 290 256 260 263 207 233 252 309 314 341 298 280 260 260 301 275 254 262 268 291 306 322 295 227 250 254 260 270 288 317 355 373 358 336 379 378 386 365 359 355 369 327 295 304 359 410 433 413 420 443 426 423 412 415 435 386 416 429 420 336 314 376 393 377 378 380 408 447 450 439 422 426
90 90 86 80 82 86 80 81 84 83 79 81 82 80 59 72 80 67 40 88 80 83 82 86 84 87 92 97 102 205 289 431 341 306 91 108 107 109 111 137 114 194 256 302 295 295 336 327 283 286 275 260 272 182 180 133 123 118 282 272 267 203 203 198 183 182 214 251 291 285 251 271 307 301 300 278 269 221 251 205 234 299 293 298 302 298 269 249 272 282 274 249 250 306 325 281 276 207 199 205 209 220 238 295 343 296 289 317 339 378 394 379 361 373 370 401 349 314 301 328 413 425 383 401 425 423 434 433 429 445 444 440 425 422 398 315 313 414 384 377 400 457 474 436 431 426 427
91 88 85 79 84 87 89 88 83 85 75 58 70 81 37 64 80 76 47 74 72 85 84 85 90 92 95 97 102 139 260 416 312 243 204 117 116 143 182 170 199 214 227 229 254 295 335 303 252 242 237 241 243 179 170 145 107 117 266 245 222 214 187 166 167 186 211 280 294 283 246 264 298 301 287 264 253 204 198 205 271 287 280 285 306 298 269 239 295 282 240 240 290 276 295 252 213 207 216 222 209 227 206 228 346 258 288 329 339 379 379 383 390 403 427 396 387 387 315 319 335 348 366 401 434 434 429 445 441 439 440 436 424 420 389 333 322 406 380 363 393 423 465 439 423 423 420
89 88 87 85 84 89 88 81 73 44 61 79 82 84 60 75 55 76 57 86 81 86 84 90 72 85 94 89 98 135 279 374 265 223 179 104 128 188 185 169 195 171 203 212 235 283 325 267 227 210 208 213 227 228 125 127 122 134 198 229 192 176 146 168 182 240 295 284 289 273 239 284 276 301 267 254 208 188 201 241 264 260 265 278 275 278 237 239 295 261 233 238 296 244 244 210 206 220 222 244 285 270 228 226 244 240 234 309 369 371 303 332 332 384 427 423 426 436 388 341 341 371 394 427 430 452 437 427 463 445 445 450 439 423 411 401 346 350 356 354 390 392 436 433 423 414 405
86 87 90 92 89 94 91 85 73 47 64 73 79 81 83 81 74 92 73 75 84 91 87 89 74 85 82 85 100 141 281 317 274 198 133 110 119 146 144 151 161 164 181 237 259 283 251 219 208 197 197 205 217 227 127 129 129 130 129 221 171 153 152 226 281 277 272 273 289 263 229 261 271 310 283 198 191 194 288 267 246 260 278 285 269 230 230 265 279 261 216 302 264 232 202 203 217 281 253 251 259 294 319 229 232 259 236 244 256 279 291 292 299 332 336 388 432 451 444 414 369 368 391 433 436 452 444 442 448 435 447 436 436 418 407 382 368 348 356 367 369 398 422 433 428 429 418
92 91 93 96 93 89 90 94 79 79 64 71 64 86 73 71 78 71 72 90 89 85 87 88 76 71 78 84 97 142 236 275 257 176 119 112 120 133 140 154 150 169 175 193 265 255 224 204 191 194 192 203 208 233 185 179 156 139 109 147 158 146 155 255 281 272 255 253 262 227 225 246 273 301 293 200 178 186 284 242 244 285 254 257 219 223 261 288 258 209 210 218 194 199 195 214 261 320 295 278 273 294 344 280 262 315 293 233 233 271 333 366 378 373 348 362 430 432 447 429 419 437 416 440 458 458 457 454 451 442 452 432 435 409 396 389 379 359 352 351 366 390 416 467 444 425 422
90 95 96 95 92 92 91 98 85 86 72 65 62 84 76 78 76 78 64 89 97 99 95 94 82 94 87 87 95 121 263 217 224 189 110 107 126 170 185 176 164 158 171 188 216 216 212 200 186 180 190 202 213 230 220 180 162 147 108 134 140 145 183 252 292 279 262 240 258 220 236 251 299 279 285 259 185 181 254 233 278 258 215 216 219 315 291 204 194 192 201 197 198 232 260 237 243 251 266 323 324 350 369 309 315 347 371 324 245 250 282 309 357 368 393 376 401 420 440 445 447 445 443 456 458 453 457 447 447 437 440 424 402 401 401 390 356 353 334 373 377 386 434 448 443 443 446
90 98 98 93 91 88 97 92 93 77 77 75 77 79 62 64 77 83 70 79 82 94 99 101 80 91 91 79 89 113 245 207 195 171 118 100 116 125 170 158 148 156 152 177 190 205 195 192 189 179 178 194 214 221 230 227 286 170 121 145 150 216 248 274 288 279 257 231 229 201 280 265 272 272 294 227 179 180 237 217 278 198 209 271 284 263 222 188 185 192 199 216 237 302 308 290 290 259 259 259 295 320 353 356 345 363 368 377 264 247 275 336 393 379 401 406 418 428 433 455 452 457 447 451 451 452 449 450 442 433 424 421 406 407 399 355 368 360 354 373 409 402 431 428 431 431 457
88 88 88 86 94 99 91 88 90 83 77 -4 74 72 74 77 75 78 88 81 88 96 93 96 78 91 92 85 94 122 223 180 172 162 183 153 127 123 140 145 148 148 155 166 186 205 198 178 190 175 178 198 217 217 247 272 287 234 131 134 191 185 232 279 279 265 252 230 202 219 300 306 252 272 288 225 172 167 166 198 201 187 207 294 270 225 194 193 207 284 293 288 301 328 298 250 292 304 332 336 337 318 352 372 363 367 394 377 360 144 248 353 407 420 407 417 420 425 439 459 452 449 454 454 454 452 455 455 449 426 419 426 416 401 395 373 367 360 362 378 408 455 455 452 442 424 425
94 91 89 82 81 89 88 84 82 94 82 48 68 64 73 51 56 66 89 92 90 90 94 91 69 94 80 83 97 139 191 144 160 165 177 160 139 129 129 140 131 146 146 142 183 202 190 168 166 168 177 187 194 204 198 238 265 196 138 125 131 137 272 256 284 279 252 262 199 204 300 286 222 228 263 248 188 165 167 171 166 169 174 221 207 186 192 243 295 315 324 304 293 312 248 242 277 341 344 346 357 357 376 372 392 395 389 376 332 172 287 383 412 419 424 418 429 438 454 458 437 451 453 454 459 454 441 447 451 438 424 418 431 404 394 393 385 364 379 393 402 443 428 434 431 411 414
96 94 92 92 90 85 77 89 89 91 72 65 76 61 76 73 81 50 77 81 90 91 98 91 72 91 69 95 105 135 154 150 154 177 181 163 147 121 127 136 170 157 149 143 165 185 165 162 162 175 176 179 181 190 202 238 279 263 181 172 134 134 140 247 282 258 257 254 191 184 233 278 206 179 222 178 170 165 166 167 171 169 169 170 177 188 230 276 298 260 268 252 257 294 215 227 185 187 257 297 249 249 311 356 377 392 373 328 288 162 262 292 293 320 383 413 431 430 449 465 441 445 448 453 451 453 451 447 447 434 441 429 423 399 394 381 363 363 372 379 392 398 419 438 433 430 429
96 91 94 89 84 84 87 92 85 64 73 63 76 66 75 85 90 50 62 81 81 81 91 94 94 93 76 101 112 130 124 158 149 161 165 159 172 127 127 136 185 204 157 152 153 158 159 162 169 192 188 181 179 188 204 251 278 278 224 159 144 138 134 209 264 231 231 248 226 170 207 226 162 159 159 154 164 166 258 286 299 255 169 188 180 188 272 292 261 198 248 215 282 186 182 189 188 183 187 189 214 252 312 364 369 376 383 337 378 257 252 235 312 330 342 376 423 437 443 451 447 443 444 446 448 450 442 449 441 430 443 435 411 381 370 370 370 359 367 378 386 390 428 453 446 443 445
90 90 98 92 87 86 89 97 80 87 82 79 76 38 52 82 89 50 52 81 83 89 90 93 96 92 95 103 110 121 124 120 150 138 136 157 165 151 132 178 202 218 209 169 167 161 184 165 169 176 198 212 188 193 207 245 254 281 256 173 125 135 136 188 243 232 212 219 164 146 154 156 161 161 159 163 198 214 256 264 294 289 283 259 240 240 261 205 182 174 179 182 177 181 178 176 196 228 213 191 195 263 321 341 364 358 388 373 379 371 377 254 192 341 411 405 401 417 446 458 446 424 430 445 448 434 439 441 415 415 425 420 393 376 375 376 390 377 371 376 396 423 434 487 476 473 437
98 92 91 92 87 86 96 92 76 73 84 84 85 83 77 81 85 92 96 86 86 87 91 91 97 95 60 97 107 108 141 130 133 134 136 148 168 165 135 141 180 191 199 198 177 166 192 175 174 182 183 201 234 207 200 218 243 268 252 204 139 135 135 154 190 230 196 154 164 146 153 159 154 223 239 238 258 285 243 276 299 278 253 178 172 174 176 169 162 311 287 193 185 232 276 267 264 250 354 318 197 197 205 235 289 388 387 373 391 391 392 281 196 340 403 439 431 437 456 439 444 438 415 439 442 421 416 420 431 414 406 410 395 395 387 383 386 383 373 390 405 457 457 485 471 461 441
97 94 95 96 84 82 91 73 80 73 69 85 78 83 76 74 80 95 97 99 93 92 91 90 92 99 61 88 113 111 123 151 139 147 161 147 168 189 144 140 152 194 188 218 209 203 219 216 201 214 189 194 218 259 245 251 244 264 230 167 159 151 131 154 178 204 166 141 148 145 154 206 202 200 231 249 260 256 236 239 247 260 237 172 171 187 175 178 206 262 291 297 206 199 321 319 314 311 336 384 215 216 205 204 201 209 204 281 386 383 397 259 265 433 430 438 436 446 455 445 439 433 402 417 428 422 416 403 402 401 402 407 410 397 397 384 388 396 412 436 455 446 457 479 459 435 437
103 103 101 99 94 74 76 68 66 76 86 83 76 76 56 80 72 91 89 94 93 95 86 88 94 93 90 103 119 119 117 181 160 167 175 159 163 173 148 142 141 184 171 185 175 218 217 226 257 250 215 206 210 230 262 271 251 242 233 195 245 142 138 172 183 201 150 142 148 149 187 173 178 188 194 227 232 228 217 237 219 252 257 182 173 279 284 196 197 210 242 243 311 230 245 268 304 316 345 352 321 289 287 324 206 213 204 263 357 391 391 266 264 386 449 457 452 457 434 432 370 368 375 389 395 393 400 393 396 402 404 411 420 422 389 387 398 413 474 460 448 430 439 458 459 450 433
102 84 70 84 82 73 80 83 87 81 79 73 74 81 90 82 88 83 83 79 99 96 90 87 90 90 90 115 132 130 125 139 138 144 179 173 187 180 157 144 138 146 157 171 153 182 195 216 253 252 248 221 228 226 238 248 252 240 225 211 214 156 133 154 185 155 144 139 178 169 145 151 154 166 170 194 202 221 190 229 208 216 233 166 167 200 264 262 274 237 243 265 264 302 254 253 269 302 321 323 324 326 325 345 348 308 208 214 270 379 400 254 271 320 444 439 439 440 441 434 354 357 398 387 396 393 396 400 399 407 434 430 426 426 357 360 403 457 452 458 437 436 429 459 451 440 426
93 96 84 83 78 81 84 87 82 82 84 80 73 86 76 90 93 91 90 90 93 96 88 81 86 82 79 141 140 136 134 133 136 139 160 159 183 191 167 157 153 150 145 150 153 174 189 225 230 236 245 242 252 246 242 238 237 239 223 222 217 191 131 146 149 138 142 130 147 141 148 178 153 155 167 177 176 179 162 151 157 164 165 165 169 196 250 264 274 289 248 267 279 288 302 302 267 294 306 306 319 319 336 345 355 365 214 97 271 367 419 265 242 273 433 428 409 405 334 325 341 329 389 395 405 398 395 390 406 424 433 407 361 418 433 436 427 443 433 451 435 436 430 458 443 424 436
100 102 91 87 79 79 76 82 84 84 70 89 89 88 90 79 93 94 92 84 84 100 94 93 86 78 94 114 115 135 166 158 153 142 146 168 172 179 164 165 178 165 158 145 150 178 178 231 216 236 248 257 256 256 251 236 229 227 226 225 207 163 138 138 138 144 151 137 144 141 163 186 187 151 146 149 149 156 160 160 162 163 204 233 183 190 279 271 275 280 257 268 267 282 292 286 278 311 312 311 310 334 328 337 354 370 263 176 268 360 414 423 306 274 342 410 347 303 308 314 345 359 373 380 387 392 376 390 402 416 435 430 429 416 417 446 479 461 450 434 436 435 434 452 445 434 435
99 103 105 93 80 78 55 84 86 86 84 86 90 88 81 93 92 92 90 90 92 96 87 75 69 82 98 117 118 123 151 163 169 155 153 154 171 204 197 190 168 168 163 165 159 162 169 174 195 219 237 239 245 240 226 219 219 214 213 229 220 196 145 139 142 138 133 138 145 176 181 180 186 173 164 157 157 157 166 194 205 212 227 248 190 190 256 240 240 260 269 262 276 291 295 307 302 310 314 311 310 320 325 324 350 314 272 159 348 407 416 435 398 271 276 288 287 240 405 374 380 395 387 383 371 385 393 393 401 424 428 414 430 435 421 458 503 463 449 441 440 434 432 450 442 440 432
101 94 94 92 83 83 42 80 83 84 88 86 87 85 63 92 86 86 80 101 98 102 92 85 95 88 113 107 110 126 151 174 190 195 173 158 162 178 215 196 172 159 182 194 165 165 177 207 220 228 234 241 241 226 213 206 197 198 201 206 213 219 195 189 175 140 139 153 171 173 178 189 185 187 167 171 167 167 168 169 175 200 217 255 229 200 236 234 227 246 254 266 269 280 291 254 315 315 315 327 325 318 311 343 354 283 256 202 261 408 421 426 417 415 331 324 295 211 307 302 305 309 372 351 371 390 408 408 418 442 425 403 399 426 432 455 453 440 448 443 438 437 425 452 451 441 428
110 95 105 93 99 70 66 82 88 85 74 88 89 103 54 94 90 83 76 103 95 94 100 88 85 74 116 116 122 138 172 178 184 191 173 166 166 176 200 216 191 238 219 193 181 161 168 197 218 226 228 225 242 223 218 201 194 191 190 191 212 194 188 200 174 142 139 145 170 172 181 203 195 183 183 195 175 177 185 177 176 184 188 231 200 196 212 224 231 251 245 252 274 275 288 276 301 319 324 335 332 318 309 336 356 325 360 199 261 330 395 419 401 402 416 421 413 294 299 302 309 309 315 325 326 417 439 437 418 425 411 375 406 419 456 433 442 434 453 448 433 434 419 454 455 452 431
99 98 108 98 84 67 71 74 85 80 82 85 88 98 85 91 95 73 69 94 101 94 97 85 87 74 116 124 139 149 169 201 201 210 216 183 191 192 204 222 218 242 229 227 198 161 159 192 210 224 206 225 228 222 217 210 206 198 208 187 174 175 184 181 170 150 82 82 162 169 182 228 203 215 246 206 185 225 205 197 204 188 188 175 214 229 210 212 216 219 231 237 249 259 275 284 287 310 329 337 314 327 315 344 353 372 378 217 216 240 412 391 413 402 416 433 442 410 363 349 344 338 338 325 330 351 431 429 412 414 400 409 415 418 459 444 439 438 434 434 438 428 410 430 459 447 417
85 101 94 88 84 83 62 80 89 80 53 83 91 94 98 100 101 98 97 90 102 106 100 98 75 105 119 149 161 165 164 163 170 191 180 189 218 217 228 230 209 212 220 207 185 176 163 191 217 210 200 210 238 220 208 235 228 217 210 204 190 167 165 159 169 151 116 143 143 163 177 225 226 196 209 227 203 203 250 231 217 211 192 190 207 225 226 216 221 218 226 238 246 257 279 296 294 332 352 341 333 334 332 354 373 373 377 403 186 235 393 356 410 424 425 420 409 384 359 355 361 383 397 327 342 355 387 403 403 395 396 404 407 412 429 456 451 436 440 432 437 431 421 426 453 439 417
98 90 86 85 81 84 84 77 82 85 81 86 83 90 85 95 98 92 95 93 90 90 98 96 94 102 112 125 153 135 134 132 139 166 154 166 179 189 201 211 204 199 215 215 198 175 169 193 214 197 200 205 228 215 204 199 207 218 208 198 191 174 158 155 149 142 137 141 148 145 171 172 202 196 178 172 189 240 232 215 209 207 207 181 207 227 226 211 223 219 227 257 222 220 297 311 456 416 377 392 336 327 343 363 244 397 363 360 221 246 284 314 396 412 400 410 398 397 380 378 385 403 410 368 368 341 352 370 353 398 388 403 409 411 412 442 467 462 440 436 439 437 431 433 445 448 436
76 84 83 88 91 75 86 86 84 86 86 86 88 76 43 94 87 89 96 101 107 99 94 101 93 114 116 118 126 130 134 143 141 143 151 164 170 180 224 220 199 194 191 201 195 176 174 182 192 194 209 216 222 204 196 197 200 208 195 178 179 191 186 173 159 133 125 138 156 144 157 180 173 169 169 174 178 203 226 220 204 197 196 194 214 248 227 224 226 225 221 238 239 279 317 354 482 437 446 376 355 340 336 362 375 383 365 257 224 296 312 345 359 397 400 404 420 413 413 406 415 415 407 407 399 407 386 377 353 397 395 400 405 413 439 451 467 452 461 453 429 440 432 422 447 448 439
72 80 83 71 62 62 85 83 84 87 90 91 88 89 96 98 98 89 96 102 98 101 102 91 102 131 152 163 148 142 168 179 166 150 151 155 166 180 195 212 201 186 186 193 198 184 176 184 202 212 227 235 230 207 200 197 198 210 197 184 175 169 170 164 151 140 122 134 165 157 142 139 152 159 190 203 203 211 228 222 213 201 190 192 215 255 248 243 256 229 231 249 237 269 310 345 467 428 422 439 385 349 348 350 370 296 238 237 226 236 249 261 404 413 408 410 408 402 393 340 408 408 413 416 407 402 390 375 374 396 406 409 419 453 460 465 465 451 444 448 461 447 423 410 422 438 445
82 86 86 87 90 64 84 74 84 70 78 92 92 95 98 102 101 98 87 101 100 99 96 97 109 110 127 156 138 140 166 175 179 172 190 178 173 180 194 210 201 194 186 186 199 189 175 183 136 202 206 225 203 204 209 184 189 214 196 187 183 164 155 156 155 116 109 144 179 183 148 146 152 161 166 172 189 209 221 229 212 211 212 205 208 212 288 323 297 261 233 240 294 345 372 410 445 404 410 444 360 334 341 305 235 231 235 236 244 293 268 240 306 401 394 381 405 403 397 395 409 414 413 422 399 394 398 381 367 390 414 417 447 491 469 457 438 463 449 442 445 454 434 426 420 440 455
86 83 84 85 90 50 77 71 87 72 79 83 85 89 94 95 102 96 94 97 101 100 97 106 112 108 115 115 129 151 156 188 172 185 180 187 185 187 216 200 199 193 193 183 191 178 175 190 193 208 206 212 207 185 182 199 184 174 167 163 163 139 150 154 167 130 142 150 165 195 178 163 177 164 165 164 169 192 203 214 216 230 229 209 218 213 226 238 324 277 240 240 249 269 271 366 441 419 381 422 351 321 310 268 232 236 360 363 343 387 355 249 254 290 338 372 390 385 400 396 412 412 406 408 408 411 398 398 381 381 395 394 359 412 469 459 445 436 439 418 426 447 459 440 421 430 447
82 85 86 83 15 -13 80 85 89 83 93 98 92 98 98 95 100 97 98 98 97 100 104 143 137 134 124 115 115 132 150 180 158 179 166 174 179 186 203 193 191 190 199 182 182 176 189 194 208 204 217 200 182 177 177 177 175 176 171 170 163 158 158 165 157 127 142 147 159 174 196 204 192 194 177 178 162 173 178 189 196 215 237 240 239 246 247 244 250 354 290 285 249 263 360 432 456 461 369 391 361 328 308 284 218 256 356 367 375 381 378 373 266 245 300 374 369 394 397 396 411 427 425 409 407 399 405 405 360 383 387 394 386 390 448 469 456 444 414 413 412 426 443 437 416 423 441
65 83 83 88 56 51 89 86 97 89 100 108 99 97 108 96 102 101 88 99 99 102 116 171 167 163 147 129 119 121 124 135 142 174 157 162 189 208 206 209 192 187 185 179 184 190 200 232 225 210 188 181 184 176 183 187 189 194 195 199 190 183 166 169 147 123 144 160 177 178 202 212 196 211 196 177 192 178 178 184 206 249 259 276 257 257 291 319 267 322 410 323 257 261 412 404 457 441 360 360 420 354 319 291 233 212 343 349 362 352 359 359 343 265 270 374 378 373 386 397 405 453 451 428 416 401 381 403 397 355 370 379 401 419 452 478 460 427 443 431 432 428 435 434 427 411 435
84 88 87 85 44 88 88 92 93 84 99 103 93 87 100 88 96 97 80 93 107 106 114 121 152 144 145 165 145 131 121 127 131 157 157 180 203 184 181 193 201 196 188 188 183 202 234 240 216 194 189 184 198 216 220 210 226 229 195 194 190 184 149 145 130 138 161 163 182 206 205 234 214 221 210 204 202 189 185 195 198 260 287 301 275 280 359 401 273 279 425 420 323 272 301 335 422 447 360 349 400 381 313 317 202 274 346 367 372 360 360 361 347 268 291 367 367 368 381 436 427 410 414 429 411 392 381 394 389 371 368 379 403 438 458 448 451 427 462 454 445 426 429 430 426 418 446
74 85 88 88 56 90 89 84 92 98 103 103 101 89 94 91 92 92 109 104 106 122 134 117 122 131 144 177 157 145 137 130 126 145 164 193 187 170 170 174 181 185 206 194 194 200 248 219 209 199 189 197 231 261 259 254 211 190 184 177 176 162 143 142 150 159 162 193 228 278 283 299 267 285 251 228 221 199 188 208 222 283 342 341 310 351 379 429 354 294 330 440 436 394 307 314 434 456 379 342 344 374 338 338 217 214 358 361 359 348 359 361 361 347 294 353 347 382 399 425 417 408 404 422 414 408 395 394 351 374 338 399 410 430 452 443 456 456 478 456 443 443 437 460 429 416 428
83 77 84 88 48 92 89 95 98 104 103 103 93 95 101 96 99 103 109 103 119 181 179 157 128 128 146 164 182 158 159 151 134 148 189 187 169 163 170 191 183 191 215 200 214 217 250 227 210 200 202 224 233 236 231 219 224 195 191 178 170 132 129 155 115 161 162 184 184 186 245 238 258 287 243 248 294 223 226 238 248 304 374 396 361 403 466 455 403 325 322 426 439 449 445 348 374 465 383 345 341 307 353 323 298 247 294 351 346 370 370 358 360 342 294 320 334 368 405 425 414 408 402 402 396 408 393 393 386 374 402 401 412 427 459 425 431 453 481 464 457 470 470 457 447 423 416
80 85 90 91 96 85 88 89 99 100 105 104 99 93 97 100 102 105 106 108 188 203 182 161 134 122 140 166 208 188 191 168 145 146 150 175 158 164 180 196 194 191 204 224 226 278 252 218 206 209 233 254 218 207 198 214 200 202 198 185 193 168 146 143 158 191 182 184 181 187 248 238 253 249 239 242 285 302 252 284 320 331 428 449 425 456 469 451 460 413 357 392 437 453 459 447 427 439 385 352 340 340 343 319 258 224 308 357 370 426 380 368 343 355 326 320 345 374 369 416 432 418 412 407 392 392 393 398 392 375 396 403 409 413 410 410 436 485 488 481 473 473 469 455 449 454 419
86 86 88 99 94 87 83 91 106 112 112 101 103 100 98 103 104 100 109 131 169 190 192 170 144 127 153 180 183 180 189 188 168 160 150 158 159 177 180 186 201 214 210 256 296 277 243 218 215 225 255 213 197 196 188 179 176 186 192 199 199 186 164 147 133 186 211 198 212 253 234 224 241 239 226 236 257 287 306 320 409 408 411 418 477 458 442 444 456 457 434 395 396 435 459 439 453 459 381 351 335 328 314 298 219 266 327 347 386 423 416 401 387 374 371 331 330 354 368 416 440 433 430 419 415 413 416 413 389 372 380 396 410 408 409 416 488 476 480 475 470 470 469 455 449 435 443
93 96 44 84 91 81 83 84 96 104 110 101 100 102 104 98 86 101 108 131 146 162 178 184 148 134 135 172 166 176 191 187 173 180 167 159 164 166 175 185 192 210 298 267 259 242 226 230 244 265 225 203 186 186 186 182 168 177 186 194 149 149 154 153 165 180 211 234 251 226 221 225 230 227 222 253 272 309 355 378 429 389 379 425 431 474 458 442 433 461 441 438 439 439 464 439 410 410 394 357 345 319 316 316 238 274 279 356 395 416 404 394 419 383 375 357 335 346 399 401 411 441 433 418 426 414 411 407 401 376 380 401 404 443 443 439 478 455 465 470 462 460 465 452 438 432 430
91 96 89 89 86 87 87 96 101 108 107 95 99 101 114 106 104 104 172 192 174 166 176 187 162 139 126 152 166 188 197 198 189 196 172 172 168 174 178 201 197 222 246 246 233 227 217 221 209 194 189 190 185 175 176 170 161 170 180 166 154 164 143 154 155 188 197 243 238 225 217 220 221 227 254 323 285 287 313 370 439 390 356 374 420 464 472 462 437 433 443 462 449 456 449 453 361 379 385 377 348 308 294 321 294 259 271 361 405 421 410 387 389 370 365 359 340 351 380 375 371 425 444 438 429 422 412 428 419 375 375 397 428 470 446 440 435 452 459 474 460 453 465 462 444 434 422
67 96 90 90 91 91 88 89 105 108 112 99 95 101 101 106 107 110 161 172 188 182 200 180 159 150 144 159 180 218 199 211 225 220 194 190 180 185 187 240 217 251 255 241 224 215 205 203 196 194 191 185 184 182 186 180 175 173 172 181 156 150 143 157 138 204 193 210 219 216 203 213 220 246 268 308 258 287 339 350 391 431 344 343 370 414 407 443 461 449 415 419 413 407 380 380 366 380 451 377 350 339 304 283 299 277 335 365 420 452 418 395 372 371 372 367 349 351 369 369 380 447 487 473 448 443 427 415 416 411 379 394 408 452 435 433 435 458 458 470 459 440 432 463 450 433 430
88 87 93 95 94 97 104 100 107 108 110 103 102 108 105 106 109 121 126 132 165 202 203 186 169 167 147 149 174 181 195 199 212 200 211 201 190 203 208 227 268 265 284 249 232 235 219 230 232 217 226 204 209 206 203 192 193 193 200 205 218 169 158 152 152 221 203 199 203 209 211 212 220 241 268 232 250 278 297 336 398 397 381 328 353 439 383 373 402 458 458 455 451 432 460 431 363 363 459 459 433 342 310 316 285 277 337 334 387 452 419 401 381 371 364 365 349 351 368 374 402 459 473 463 479 451 453 435 412 401 383 406 452 422 422 453 460 460 485 479 459 435 442 436 442 435 446
44 93 93 95 101 89 96 105 113 115 108 99 104 99 107 108 109 151 159 135 161 175 212 193 169 186 155 146 164 164 175 189 198 195 205 203 211 230 258 258 298 328 334 299 277 261 250 272 272 287 269 258 232 231 226 250 215 211 202 171 164 162 146 163 160 205 231 244 243 232 236 222 214 237 225 218 235 253 287 347 442 419 345 312 337 380 400 346 381 463 470 488 468 478 463 407 361 361 399 401 450 398 335 379 290 288 291 329 351 403 434 401 385 377 364 363 353 347 354 370 411 463 460 450 465 473 425 459 448 433 389 391 439 409 422 464 483 489 488 467 453 446 437 436 430 425 428
37 93 89 104 92 101 106 106 108 107 105 100 101 96 106 109 116 188 179 156 161 179 202 209 198 174 166 155 154 159 168 146 190 190 188 198 201 212 246 292 284 303 335 314 303 314 368 320 331 311 381 320 285 274 286 250 220 211 205 174 173 162 125 198 194 212 254 256 262 270 251 244 246 228 219 214 235 250 277 319 392 422 408 301 282 318 367 317 391 409 420 468 449 451 458 418 386 359 346 368 428 447 459 332 316 305 285 324 353 409 444 410 388 380 368 352 372 348 357 383 399 431 467 436 449 470 452 437 448 441 430 393 420 419 456 484 472 476 468 479 471 462 450 443 422 423 430
82 90 97 99 93 98 102 104 104 105 106 102 101 99 106 113 170 158 175 172 160 169 187 189 203 182 182 185 172 164 164 151 181 185 191 198 219 227 280 290 273 285 294 279 300 281 280 272 267 257 267 267 283 361 298 253 242 227 226 207 181 192 155 198 248 260 288 276 273 241 220 225 237 227 214 217 237 295 290 319 392 382 344 326 272 275 386 292 334 348 388 435 430 404 416 474 473 456 350 334 351 343 404 349 330 295 299 326 345 459 466 427 402 387 377 363 354 340 363 376 402 440 463 431 458 462 448 434 427 442 446 397 404 444 433 466 455 466 492 499 501 476 467 458 444 438 445
95 95 97 102 109 110 111 105 103 109 108 102 105 101 113 132 132 149 161 172 188 171 178 181 195 204 212 186 181 167 168 215 208 195 188 231 317 293 282 274 269 258 279 278 274 290 275 265 259 254 243 232 266 327 283 280 262 230 216 214 206 184 153 198 263 278 283 288 254 235 214 210 211 208 213 248 237 304 345 367 405 419 402 326 285 264 259 255 278 334 315 390 416 383 406 405 433 436 374 338 292 339 401 415 363 326 303 307 344 450 435 456 427 402 426 390 374 352 357 417 449 463 444 429 448 475 455 428 428 421 424 407 407 427 422 433 447 467 488 515 493 492 482 452 444 444 439
96 98 95 103 100 104 107 109 104 109 107 106 109 113 119 122 123 125 150 165 195 179 184 184 191 204 212 192 199 184 191 196 242 202 199 267 251 253 272 265 257 249 243 254 253 242 257 280 270 308 276 219 225 258 270 260 260 233 220 241 181 161 166 164 172 173 171 231 262 248 209 207 207 205 217 236 322 292 314 328 295 312 338 281 318 271 243 242 249 246 274 335 371 339 322 348 427 382 402 352 287 312 351 346 345 342 278 307 304 346 413 418 471 466 438 390 394 374 365 409 435 441 451 421 435 471 477 468 451 434 432 438 407 408 451 452 453 491 468 470 479 473 475 462 454 451 447
99 97 101 102 105 105 108 103 111 110 108 110 111 129 167 155 128 124 151 192 212 217 198 218 238 233 226 211 222 217 228 204 211 217 223 228 236 248 282 273 274 253 245 242 232 234 234 226 229 256 288 217 195 195 217 232 256 253 244 238 181 164 169 167 168 166 167 220 228 247 216 204 193 215 269 310 288 277 279 284 276 279 307 257 261 239 237 254 252 240 257 260 299 291 292 328 396 379 334 365 321 298 302 311 350 328 322 300 308 333 379 387 406 437 437 408 393 363 360 402 414 441 462 437 427 449 461 459 435 454 439 436 387 404 431 426 460 514 480 462 464 466 464 499 489 510 497
105 94 100 106 98 100 99 96 108 107 105 112 114 171 195 179 161 133 138 229 205 197 187 223 235 245 258 230 256 248 251 256 220 227 247 243 253 273 275 262 251 271 282 252 231 232 230 224 219 214 215 213 187 185 184 210 229 241 254 248 220 165 162 171 169 170 169 185 212 207 216 209 191 230 270 272 290 270 264 273 269 270 282 263 238 238 283 404 394 302 266 260 263 275 292 329 367 330 321 301 315 298 316 317 302 314 308 304 302 308 342 369 368 398 434 434 396 372 371 373 424 418 434 432 393 452 470 456 449 423 432 435 418 395 426 426 446 480 486 468 451 475 480 476 484 495 512
98 106 103 108 104 100 100 104 108 104 105 112 161 198 202 179 161 149 139 217 190 165 178 192 223 220 245 292 277 269 277 259 258 266 266 262 247 270 260 247 244 239 242 266 266 277 259 269 222 213 208 203 212 204 186 200 235 226 226 203 198 159 159 269 276 190 169 182 190 200 205 201 196 228 248 264 306 287 262 265 263 264 268 257 233 253 301 370 448 388 448 290 280 273 274 278 284 243 286 298 315 403 357 310 328 351 306 304 298 307 308 311 327 353 406 435 419 434 378 373 383 411 426 436 397 421 458 478 461 432 425 423 426 402 432 449 476 482 464 463 452 472 459 474 479 491 496
105 100 101 103 96 99 80 101 107 108 109 143 207 207 220 205 178 161 143 185 184 162 164 183 196 198 206 223 273 295 295 288 254 242 237 234 225 237 237 243 244 237 230 232 231 247 250 241 235 219 209 203 212 218 192 187 199 194 204 220 179 163 163 226 201 152 169 174 179 186 177 187 202 238 242 262 286 285 259 268 261 264 263 265 237 241 274 346 315 346 453 360 346 353 374 304 284 246 223 339 405 390 368 330 386 430 436 365 324 318 299 291 305 325 398 446 453 457 415 433 390 392 421 440 388 394 444 462 451 449 443 418 419 416 430 460 490 468 467 443 442 462 461 464 474 486 499
105 104 112 110 101 107 88 92 106 114 147 217 217 223 212 197 186 157 140 141 152 159 164 168 178 186 207 224 258 306 310 278 254 246 242 240 226 228 224 232 237 242 247 224 221 218 228 228 212 230 216 208 203 201 209 199 201 181 190 186 176 174 210 208 170 153 174 178 183 191 173 187 189 210 252 262 281 281 237 261 261 254 259 274 248 243 261 263 246 292 373 404 461 451 417 359 335 313 228 307 377 412 428 391 420 422 384 357 350 374 388 349 315 307 355 415 444 464 442 444 418 399 406 432 426 383 420 453 461 452 443 437 408 414 439 463 482 470 448 443 432 453 455 452 475 481 497
92 107 115 108 113 107 110 107 116 139 254 252 224 242 225 211 202 186 190 142 153 166 209 173 200 187 213 224 284 323 313 297 289 292 262 256 248 229 217 222 232 242 250 214 217 217 217 216 202 228 232 224 228 230 229 232 238 181 179 176 170 197 211 209 170 155 186 181 171 183 216 224 191 187 187 226 284 289 262 266 238 236 229 239 242 250 263 254 246 297 431 447 461 431 419 402 432 354 368 345 415 412 431 425 435 442 430 402 433 411 409 431 303 319 348 379 417 434 420 431 446 406 416 428 429 385 396 480 462 437 433 433 430 415 422 454 464 474 455 444 442 440 460 462 488 502 501
92 111 113 110 104 108 110 123 134 158 206 240 242 258 242 214 201 194 183 149 150 178 214 192 201 211 220 257 321 318 314 313 290 270 260 259 229 218 215 212 257 226 212 198 195 198 196 201 231 246 252 253 229 229 184 176 178 170 182 179 172 221 227 226 176 174 179 185 196 181 205 218 240 210 196 199 259 262 238 214 221 217 229 245 241 247 276 259 270 286 327 415 462 455 445 448 391 421 407 437 483 459 464 464 466 454 452 454 468 443 435 400 370 310 319 364 434 433 393 438 442 445 429 425 411 376 394 440 464 454 444 433 426 419 419 437 456 456 446 441 439 449 467 484 499 490 487
112 115 113 107 105 102 109 130 137 145 159 182 235 250 230 214 214 233 186 157 157 182 199 207 206 236 238 300 318 311 303 317 318 276 255 241 221 224 239 210 208 210 202 192 180 189 197 194 200 220 231 229 210 184 178 186 163 171 217 215 216 215 232 211 210 189 203 193 190 192 230 246 239 242 270 201 199 206 205 205 222 237 282 283 266 247 243 259 266 274 290 321 451 456 477 453 445 453 469 443 456 445 456 478 461 454 443 444 441 470 450 415 370 310 319 304 399 426 376 431 440 446 436 425 404 374 411 471 428 471 490 478 450 438 422 419 438 435 435 433 444 455 474 477 481 488 488
115 114 113 112 107 100 102 164 246 264 158 165 204 256 232 223 233 210 171 165 175 193 222 261 229 240 251 306 315 311 302 317 295 256 227 222 222 303 240 240 214 213 202 209 198 200 237 193 197 188 190 182 182 181 220 198 176 181 233 231 236 238 235 220 221 247 183 181 182 215 227 225 246 256 274 275 263 214 230 253 265 264 265 276 277 269 242 257 243 272 282 320 423 429 449 440 437 491 473 443 460 443 437 461 475 452 455 435 437 446 453 427 423 399 370 253 335 370 352 393 384 409 444 412 396 366 433 477 421 431 474 463 454 460 428 426 429 428 428 431 444 431 466 478 486 501 503
103 87 106 99 108 92 136 239 319 288 193 170 237 261 243 243 226 212 164 164 195 204 230 299 291 314 261 275 296 317 324 283 232 232 231 227 275 346 338 331 324 308 281 272 242 238 232 191 185 191 192 212 212 249 250 206 209 197 257 245 244 238 229 223 226 237 182 191 200 192 199 246 255 249 251 281 268 231 262 275 255 279 271 277 277 271 262 263 259 299 324 439 437 428 428 457 468 483 497 451 443 459 424 444 481 462 434 432 426 449 474 476 451 431 385 331 337 340 339 342 347 345 348 365 357 363 392 407 441 409 461 468 456 449 443 434 435 447 443 456 455 463 476 483 474 495 521
104 96 104 102 106 126 179 284 327 284 182 160 282 286 259 248 239 217 177 175 192 238 272 305 355 330 310 290 294 308 302 242 239 241 279 248 287 307 322 331 321 312 282 281 246 261 273 221 222 218 251 272 289 278 265 216 217 237 240 242 249 254 234 237 256 245 194 188 189 188 174 230 206 234 247 248 280 241 252 282 282 284 289 293 290 282 273 268 296 370 353 304 409 369 382 450 450 465 462 468 441 445 421 440 468 457 459 435 418 453 450 471 496 467 427 403 415 371 373 348 348 327 347 353 357 352 375 388 391 395 390 424 442 448 447 453 432 436 438 468 498 481 478 473 500 538 510
107 105 100 103 111 162 309 321 293 288 191 204 314 269 300 268 286 209 184 184 189 217 236 269 324 302 291 265 261 262 232 241 250 321 326 283 288 313 329 356 337 333 326 310 266 265 289 278 250 234 294 307 298 240 240 231 228 262 254 251 266 276 270 269 266 255 270 255 242 184 179 209 208 223 243 248 265 256 251 259 275 277 296 335 311 294 338 377 314 298 290 271 285 308 344 453 430 474 460 487 466 431 419 449 467 454 462 444 420 417 420 461 471 476 475 479 451 459 418 465 450 391 398 353 353 352 362 362 368 373 373 388 415 439 442 466 449 440 436 444 485 465 466 476 532 540 511
102 108 109 113 169 267 368 358 258 226 195 233 295 300 307 286 234 206 204 212 210 239 242 265 307 280 265 260 249 246 248 301 335 325 357 306 319 349 365 360 349 348 320 286 273 319 330 289 246 261 314 317 296 289 279 230 248 302 276 275 274 282 283 294 288 287 282 276 264 215 193 195 232 227 235 241 263 266 270 259 268 270 285 309 376 315 339 372 289 276 269 270 343 377 378 389 422 467 443 440 440 464 419 427 465 462 446 491 436 413 440 480 473 443 458 474 474 479 474 452 417 398 374 361 357 363 406 449 387 387 416 386 408 423 440 472 483 465 443 444 452 448 443 460 508 534 508
108 110 119 151 209 333 366 306 263 269 217 210 276 317 318 257 234 207 241 228 228 260 271 297 304 269 269 260 245 254 319 359 371 373 368 327 347 347 399 390 403 405 358 286 337 336 313 292 247 274 335 351 321 309 283 259 244 265 280 289 287 286 284 290 280 275 272 261 238 232 208 184 245 254 232 240 246 246 251 259 264 269 280 295 310 276 295 293 276 266 266 309 363 430 440 407 438 479 441 481 442 453 414 423 437 439 414 468 476 419 455 455 463 432 432 456 473 449 469 466 420 378 355 361 370 387 446 458 417 429 429 364 376 429 464 512 523 500 470 465 452 451 445 445 497 529 517
108 116 148 185 266 421 358 317 294 331 232 243 314 322 314 256 256 251 264 252 251 277 318 347 294 272 324 265 268 265 274 370 398 420 409 361 367 383 398 389 384 325 313 307 311 312 303 277 266 283 336 316 315 301 280 256 250 267 305 306 307 311 299 298 281 264 258 264 238 207 195 198 201 200 258 241 258 246 252 265 270 268 269 280 310 284 303 302 271 259 261 308 324 399 458 467 447 474 451 477 453 446 412 397 423 411 403 451 467 432 397 447 433 477 405 419 461 418 457 439 432 369 369 407 419 429 440 450 448 444 431 386 404 444 557 591 599 527 502 501 499 498 483 485 600 529 491
115 177 170 242 399 415 369 323 388 273 246 268 345 348 315 294 287 301 305 290 304 308 370 311 292 301 321 268 344 376 273 270 302 430 433 388 390 419 407 362 348 341 401 404 403 400 356 327 281 328 335 322 316 316 270 257 272 265 289 308 314 304 294 286 280 267 242 233 220 204 211 227 201 208 217 268 275 283 299 272 273 301 281 279 299 279 287 338 273 261 229 278 285 350 421 464 457 454 460 475 445 453 418 409 412 414 405 398 447 468 395 417 388 392 405 396 432 381 381 415 374 366 385 401 422 437 454 443 430 444 397 384 405 452 502 581 613 600 550 550 593 577 582 609 590 593 492
156 203 206 245 371 426 384 383 386 261 264 271 321 357 335 346 329 350 361 358 331 316 303 303 302 383 321 276 283 398 387 330 304 398 456 466 435 418 385 370 351 384 403 438 388 352 344 314 300 367 338 321 296 288 263 271 303 292 291 281 300 296 284 280 264 266 238 226 209 199 237 248 265 213 214 269 296 297 322 292 286 361 367 285 272 306 306 372 331 268 229 261 294 349 366 366 421 410 441 449 432 400 400 417 422 455 431 392 406 444 417 412 384 392 389 385 377 373 374 377 378 408 429 421 428 442 454 440 428 409 412 376 427 449 512 656 619 550 531 550 570 575 568 576 591 590 577
158 249 282 274 309 396 409 474 418 274 287 308 303 348 357 382 372 391 419 434 329 318 340 349 483 460 387 284 295 340 440 316 304 438 436 466 439 433 411 379 430 418 418 422 384 350 333 321 312 369 335 318 320 315 275 264 308 304 289 299 305 285 287 269 251 233 219 204 204 211 243 257 266 222 217 265 275 273 274 332 323 347 425 299 257 311 356 279 300 264 252 265 297 329 341 317 406 320 331 378 460 400 389 387 404 384 417 402 407 406 401 402 400 435 452 418 421 403 403 408 411 428 406 419 422 467 460 444 434 397 429 376 420 453 487 551 584 603 490 585 584 629 576 563 590 580 572
148 181 201 269 310 422 435 468 458 305 303 398 340 397 421 406 424 456 472 393 336 334 437 393 466 542 467 288 288 283 376 473 322 328 331 333 427 421 431 432 454 437 437 420 387 391 376 347 359 383 344 328 331 303 289 281 286 291 297 297 278 275 260 256 244 237 188 204 225 270 265 267 262 229 212 216 248 263 253 295 278 351 431 318 307 354 351 273 261 273 253 252 277 278 303 304 308 314 284 380 405 387 383 347 404 335 328 337 364 429 397 388 369 419 405 412 387 387 405 408 406 410 401 411 422 427 440 426 426 405 422 416 424 396 521 610 616 605 576 588 583 597 563 545 589 600 584
133 161 194 197 219 277 323 496 433 378 306 444 373 390 439 504 500 503 535 351 344 526 479 466 556 553 551 559 349 287 286 517 439 435 442 328 393 410 411 417 422 426 433 432 404 429 424 420 410 392 368 362 335 320 293 284 284 285 287 292 281 279 277 256 254 252 199 208 235 277 268 265 267 246 213 210 210 219 238 230 239 253 276 336 336 340 330 299 259 250 254 247 263 256 296 227 319 314 285 342 345 341 361 318 303 308 321 338 393 409 361 344 348 391 349 353 355 354 369 380 370 386 393 364 400 432 436 442 437 440 451 457 437 392 458 468 535 605 582 569 562 579 556 576 613 595 589
111 140 176 189 211 246 340 509 392 346 328 448 531 463 446 502 537 609 394 365 346 499 604 597 582 624 630 564 365 321 284 376 493 484 428 327 332 406 407 421 402 411 415 443 441 450 428 413 396 388 383 330 320 315 301 309 292 290 290 297 301 287 273 259 256 260 213 192 215 262 273 266 256 250 230 215 211 215 220 219 216 225 223 231 260 241 249 255 241 241 242 239 241 243 246 251 296 347 265 273 336 301 294 297 292 316 376 376 385 332 341 334 349 343 330 332 352 347 298 386 393 393 409 401 416 442 453 458 476 523 584 606 584 398 423 468 501 590 578 570 555 554 556 567 595 583 557
125 129 152 178 213 275 381 479 442 350 338 376 443 552 621 635 611 573 387 388 356 388 534 670 629 554 510 469 416 459 284 346 357 484 435 390 348 350 352 382 393 396 413 445 446 434 418 419 402 385 348 337 342 327 314 306 290 293 305 308 313 280 274 269 259 234 212 210 229 252 277 274 265 267 250 236 230 222 222 222 218 233 229 224 214 201 231 230 234 239 238 229 239 230 236 227 327 349 277 259 265 270 287 295 282 319 336 341 314 314 315 317 321 320 338 332 325 370 359 377 396 415 417 435 468 462 462 513 565 587 524 500 498 397 405 600 609 599 592 535 535 540 578 571 577 555 527
137 125 137 170 234 308 543 429 391 355 357 447 486 638 659 614 605 482 402 401 364 392 458 552 629 547 537 551 516 517 304 304 360 465 466 443 403 366 347 358 386 407 434 423 428 431 386 370 391 375 349 352 353 360 327 322 313 323 330 338 346 303 284 326 254 218 211 209 211 230 271 294 300 289 267 254 218 235 259 231 234 279 261 243 229 229 229 233 235 245 265 279 256 227 218 235 279 335 265 258 261 271 274 272 279 301 300 300 295 308 315 324 333 404 383 371 370 379 406 415 421 518 464 508 518 497 483 525 582 570 547 503 471 404 402 627 609 592 558 553 533 556 505 556 545 537 506
185 144 139 148 191 288 387 439 383 374 374 460 697 647 570 502 471 445 445 374 368 592 611 571 621 565 607 579 589 550 304 301 447 454 475 449 433 410 363 363 369 430 433 413 414 423 386 370 365 341 336 354 358 381 368 353 375 384 392 358 314 299 287 256 226 224 214 202 202 211 252 285 378 305 287 261 248 251 278 282 239 249 326 349 283 275 250 253 266 274 289 327 315 246 230 217 227 245 257 260 314 333 310 287 278 276 290 290 309 345 316 328 335 358 364 378 411 420 432 457 470 596 543 572 569 507 526 578 641 622 642 485 471 467 461 580 610 578 570 564 528 511 527 527 557 554 500
177 166 144 155 189 216 303 399 417 422 422 461 619 591 503 479 478 475 529 379 382 429 603 618 628 630 640 591 512 420 362 289 412 478 493 497 462 429 390 368 369 398 404 389 408 399 393 373 408 391 361 359 344 354 389 410 450 465 426 344 319 310 271 245 232 247 240 212 209 212 220 283 300 374 350 262 263 278 282 351 288 254 326 350 370 350 297 328 349 434 383 386 453 397 353 248 225 238 272 348 382 397 352 306 309 309 332 303 336 360 332 344 356 362 369 371 438 477 486 468 504 652 656 639 633 645 626 618 631 584 610 450 450 644 558 608 588 573 583 586 559 511 554 509 509 521 519
196 162 154 159 210 255 322 386 515 506 526 522 640 527 521 609 625 547 401 390 384 426 477 555 596 655 662 621 580 486 345 309 405 498 492 496 464 428 391 367 365 379 387 384 386 378 388 376 399 411 403 392 367 346 365 399 454 426 438 372 343 307 275 255 243 274 285 269 219 211 215 245 292 334 328 281 288 352 339 344 293 264 280 311 377 407 358 386 435 374 374 402 435 393 409 382 365 379 366 361 368 389 395 324 354 348 360 338 359 392 384 361 378 417 395 381 419 502 509 517 534 627 662 632 623 634 617 646 630 538 521 481 429 604 619 589 581 572 585 578 537 506 533 511 503 484 480
212 175 133 195 225 255 399 549 645 572 653 722 597 550 577 701 516 454 408 526 407 422 503 551 641 648 655 613 525 452 359 308 494 513 514 498 511 488 440 401 376 378 379 383 401 380 384 383 375 391 402 420 416 375 370 382 399 404 412 399 365 296 263 256 279 327 325 302 249 214 212 218 333 313 304 382 324 350 403 382 391 287 291 354 408 374 384 428 381 355 353 371 404 373 351 381 335 393 345 369 395 384 392 348 384 377 363 374 405 427 382 372 382 409 431 415 419 465 664 668 661 630 617 623 612 599 644 662 626 575 597 476 478 554 587 589 586 573 591 578 520 503 490 511 496 473 464
259 256 145 165 253 356 560 713 657 674 706 638 581 572 722 651 508 430 406 500 437 448 466 548 645 659 616 588 563 565 458 314 436 523 515 526 479 453 440 437 392 388 377 412 455 420 407 369 410 396 436 458 438 436 447 397 391 397 405 399 339 289 283 301 370 383 317 276 249 232 211 216 316 261 278 281 403 363 386 400 356 339 357 404 350 346 401 411 369 345 321 357 401 428 337 329 338 366 321 333 349 371 384 399 410 424 392 398 431 514 422 417 393 446 488 489 509 501 706 641 626 610 605 616 612 591 632 645 641 560 526 490 479 490 587 591 542 584 594 559 531 521 508 505 503 498 511
354 262 176 162 241 460 514 585 737 851 781 776 627 608 740 660 641 444 442 470 450 513 498 659 659 651 629 602 479 413 454 306 408 525 531 502 476 452 433 408 397 376 380 420 471 453 416 400 408 398 409 418 424 446 447 439 420 397 407 360 317 305 374 421 404 402 397 342 351 309 222 222 227 229 231 253 304 374 416 435 404 368 414 398 350 322 388 354 366 413 313 302 342 384 382 335 320 318 311 330 342 392 389 435 404 375 365 385 434 456 457 538 429 442 523 458 651 730 710 675 651 616 605 619 616 581 578 632 655 611 569 501 492 475 484 481 487 515 523 565 567 547 528 528 511 505 490
321 288 176 177 249 308 379 469 596 869 738 699 658 726 785 629 505 447 551 471 471 673 534 575 669 625 602 564 461 400 357 315 378 511 512 500 510 503 478 468 456 383 372 429 463 454 440 435 420 414 418 419 447 468 468 444 434 438 428 368 353 379 399 405 374 363 356 396 395 371 227 213 219 224 224 234 261 294 288 292 352 375 358 346 372 298 382 321 375 359 358 283 280 340 323 323 341 325 284 328 330 336 349 396 360 353 353 385 426 424 444 484 497 563 598 505 539 682 707 692 651 637 655 670 621 602 613 626 631 616 606 601 568 482 482 463 447 522 554 572 583 580 552 519 519 560 543
387 366 266 189 202 304 375 480 611 835 744 746 753 763 647 596 500 465 506 487 535 687 624 585 659 646 636 609 589 540 425 318 388 451 484 486 499 514 476 451 427 416 379 388 436 448 461 452 443 428 423 447 435 451 476 471 474 435 423 415 405 396 398 396 377 363 338 334 371 365 353 278 283 303 231 227 231 231 229 231 264 270 338 304 310 282 371 304 326 310 269 246 246 278 293 311 339 304 303 317 324 327 368 357 356 346 351 383 420 398 446 446 499 494 496 496 480 551 689 668 641 634 642 670 614 596 615 623 624 635 623 609 593 587 494 456 449 512 508 526 564 577 552 559 583 572 523
465 498 464 252 208 333 442 619 632 871 802 888 846 730 631 562 500 470 503 518 564 628 685 638 655 660 618 579 557 543 463 325 327 414 475 487 500 508 506 516 475 414 409 389 390 449 433 430 437 404 426 434 443 468 472 457 477 468 430 411 394 389 379 358 353 370 356 320 307 303 301 336 329 328 302 225 226 232 229 234 236 215 244 306 264 262 268 256 259 263 257 246 252 265 308 298 297 290 309 328 347 343 352 338 328 325 379 402 419 392 405 420 467 475 456 462 482 656 667 703 633 628 625 641 641 599 555 557 614 627 620 625 612 568 519 466 470 485 491 532 560 540 535 517 551 544 504
599 412 373 242 222 371 646 702 896 822 790 779 808 698 643 589 499 474 513 537 648 702 694 685 673 631 567 563 544 530 503 340 335 403 471 512 518 512 492 478 498 477 422 390 375 401 433 428 422 426 426 426 427 430 438 450 480 458 425 423 406 390 388 378 348 337 337 318 300 299 292 275 276 314 320 308 256 238 266 244 250 216 203 251 246 251 256 260 265 266 279 293 268 261 267 272 289 286 299 312 313 326 329 329 333 328 362 403 434 380 386 395 415 437 458 469 508 544 645 657 645 620 629 627 641 606 555 540 558 540 522 544 609 568 563 510 453 479 497 508 508 530 538 531 559 564 535
559 389 292 254 288 374 590 860 968 882 722 680 642 595 549 515 503 538 515 541 668 715 696 664 624 557 567 462 559 505 390 333 339 426 465 477 501 494 475 455 448 487 457 396 396 399 388 388 424 418 421 421 426 432 441 450 460 417 401 393 414 407 383 377 351 341 341 350 332 330 312 284 271 267 271 256 254 291 296 302 264 238 236 243 247 265 269 287 316 311 333 333 298 282 286 302 286 312 303 304 303 310 319 325 325 329 360 403 372 368 372 398 412 430 531 629 557 550 641 655 653 601 607 551 655 624 554 534 524 508 498 505 545 543 565 508 471 479 491 495 508 526 545 553 563 564 528
552 477 363 271 278 407 628 842 926 879 764 674 641 553 541 542 531 642 533 541 587 677 646 582 565 521 408 402 371 373 384 328 464 445 453 527 503 483 475 479 443 444 462 395 402 436 416 408 409 388 417 419 435 456 463 468 450 438 417 388 381 417 396 399 382 374 362 343 337 316 312 308 302 276 262 256 296 287 249 240 237 242 259 305 290 270 271 305 318 334 331 326 294 287 330 323 302 299 340 316 308 313 321 324 329 336 337 351 355 349 380 395 492 564 625 596 575 600 646 666 640 600 590 573 616 618 581 572 494 502 499 482 489 482 486 481 470 490 539 584 531 568 556 557 539 542 526
803 572 391 284 287 425 648 694 847 807 776 746 565 565 655 592 587 690 553 566 604 686 642 595 509 490 408 408 477 353 341 336 492 493 489 549 513 504 480 451 439 427 429 405 400 431 413 398 420 405 421 428 436 447 477 470 436 410 436 407 380 432 399 375 372 354 360 345 338 318 304 304 287 285 280 301 280 255 250 254 269 274 264 281 331 290 276 301 323 335 336 324 306 297 305 345 328 304 320 330 309 326 330 339 336 341 343 343 325 329 384 395 453 630 630 605 520 523 619 619 619 598 584 548 545 545 568 524 513 497 485 481 486 484 465 476 473 475 498 525 532 559 550 524 509 523 533
682 606 440 291 316 386 462 555 763 732 677 612 567 601 701 653 704 634 565 631 682 665 651 595 601 452 433 582 474 418 340 336 350 502 535 542 515 499 484 461 461 428 424 424 413 469 440 431 418 434 432 437 438 453 469 447 411 401 384 434 366 365 414 377 375 368 354 341 343 321 315 321 334 351 325 295 267 250 250 253 248 261 283 275 293 311 316 308 283 329 322 335 326 323 314 340 322 313 344 325 323 325 334 340 361 357 350 349 339 373 432 430 474 622 659 621 540 522 642 619 601 594 571 555 548 539 531 506 514 478 502 553 549 504 484 474 459 480 488 506 525 540 527 526 462 478 452
657 647 527 335 338 481 484 573 800 674 660 591 591 636 786 751 627 595 594 678 671 629 626 581 595 446 481 565 562 539 336 338 488 502 478 534 521 517 502 542 503 446 446 502 423 423 427 418 429 445 456 456 446 423 429 420 413 396 371 387 415 359 347 416 382 377 356 366 372 360 374 369 356 351 317 289 269 243 247 261 262 265 266 276 303 309 330 323 300 334 324 336 337 317 319 341 337 319 365 336 340 347 359 360 394 371 372 361 362 369 469 486 547 618 650 628 480 480 610 614 597 617 608 564 576 557 546 511 596 528 566 562 484 495 497 496 449 464 490 529 539 513 517 508 489 459 465
708 608 562 362 350 475 705 871 815 713 624 612 730 764 787 672 638 639 690 680 617 593 557 521 493 476 551 529 498 417 351 352 503 462 440 485 534 531 533 520 515 486 456 481 456 430 406 410 423 426 441 468 436 410 392 379 364 362 355 400 403 415 337 342 431 385 371 371 394 392 376 357 357 360 344 302 270 244 242 299 301 276 274 277 292 299 322 353 353 336 329 337 318 330 332 357 347 339 360 345 342 375 368 376 401 455 451 405 365 370 395 549 514 607 603 570 507 475 586 620 632 617 611 607 555 555 570 607 608 615 600 574 497 497 544 494 432 456 496 445 458 453 466 490 484 489 463
694 557 479 379 502 537 798 859 830 739 707 624 820 803 742 702 731 707 716 659 647 590 581 597 582 592 554 533 532 524 392 347 363 411 423 457 497 558 534 518 518 492 472 464 446 427 427 429 446 427 426 458 421 405 394 375 367 365 347 341 367 370 328 327 385 400 349 349 376 354 354 358 351 296 296 261 263 253 259 277 266 298 288 292 297 302 309 308 313 318 317 318 320 352 360 371 373 371 368 372 392 419 417 408 454 453 512 426 397 375 381 458 461 455 504 460 470 488 628 620 613 625 634 595 550 564 594 586 572 572 586 549 512 538 532 471 454 444 452 436 420 441 442 462 463 494 472
548 513 434 407 481 619 861 779 721 684 674 673 815 722 719 741 716 673 634 570 622 647 628 616 585 579 571 554 531 522 489 436 360 388 439 529 565 544 532 501 497 487 438 452 441 431 429 439 449 428 458 447 421 408 401 403 415 415 379 340 340 334 323 326 317 315 351 333 352 341 317 293 295 284 278 260 256 258 291 288 260 298 325 315 311 309 318 312 306 322 318 333 356 397 377 387 399 401 406 432 440 567 501 535 533 556 506 496 485 380 386 386 427 433 437 454 522 644 641 627 595 589 613 596 594 596 587 575 569 564 552 534 532 558 506 459 445 424 443 436 436 421 442 435 436 449 464
573 575 583 430 481 620 840 777 774 706 702 828 732 685 694 695 640 625 552 562 506 631 582 590 572 553 537 526 500 500 485 429 368 439 422 521 556 539 518 494 486 465 432 442 438 432 436 457 459 451 460 450 460 462 424 422 419 395 386 360 363 383 343 364 323 309 310 311 310 304 294 289 305 329 282 264 265 257 278 327 314 318 318 324 316 321 318 322 333 333 334 341 356 429 416 448 449 509 503 558 586 576 569 522 491 493 482 490 490 459 404 401 413 424 473 559 612 635 630 608 589 565 604 600 580 582 610 600 578 562 545 542 543 527 511 450 436 440 454 453 446 444 438 434 427 453 458
769 711 588 434 441 646 661 848 770 783 756 796 768 651 632 626 676 659 529 508 487 476 561 568 547 545 536 509 501 452 480 380 365 444 439 461 507 537 508 497 480 459 442 438 439 447 468 498 475 474 476 479 471 457 438 420 419 426 409 437 423 434 447 459 414 334 310 307 306 309 280 266 248 266 279 275 268 247 265 303 320 362 344 327 314 314 333 348 338 327 346 368 392 436 511 495 537 590 582 630 596 556 528 573 486 469 473 457 653 557 415 406 423 452 600 627 631 625 632 607 586 568 560 554 541 576 601 602 582 577 546 541 518 519 483 466 432 415 445 492 498 460 456 416 417 449 438
766 634 542 477 445 525 536 721 823 814 818 765 743 697 636 579 559 656 634 528 540 467 460 507 506 507 508 497 476 423 420 366 435 564 468 457 525 526 498 475 450 421 426 470 467 483 512 484 488 504 498 495 478 472 472 435 402 394 387 375 420 425 349 342 332 332 345 382 378 288 268 262 258 273 302 290 277 281 284 282 342 380 394 358 332 345 348 342 358 337 361 329 386 427 523 645 603 570 562 627 575 530 508 504 477 448 447 439 431 440 419 452 503 457 636 620 621 633 641 626 625 615 580 554 536 524 546 534 549 563 544 531 543 519 471 500 439 448 455 438 446 431 435 424 417 449 470
602 531 503 464 451 462 497 706 779 751 756 742 680 639 633 572 520 622 576 576 560 548 452 434 427 418 485 466 466 423 391 365 443 584 557 485 556 529 495 443 424 417 426 438 524 504 495 473 452 448 515 510 502 456 443 454 442 405 409 368 361 361 350 342 339 381 360 332 269 273 265 272 284 305 323 320 288 293 317 299 315 337 399 360 343 382 382 377 368 357 395 326 406 438 498 640 615 580 549 573 566 505 524 480 478 482 455 455 424 432 437 648 490 472 472 622 627 609 644 642 607 625 601 590 565 530 524 519 504 531 519 521 528 535 531 525 511 450 461 444 435 428 435 433 429 430 481
538 533 535 533 532 466 469 636 731 650 703 736 611 606 607 546 483 472 463 463 454 445 440 432 431 418 424 422 484 500 424 372 471 585 554 527 527 516 488 423 411 408 416 419 438 503 478 461 451 437 441 425 450 428 413 439 442 434 461 469 460 433 419 404 405 388 382 281 262 285 328 308 290 299 345 352 313 309 317 393 363 344 359 364 357 443 433 405 425 439 428 367 410 505 522 656 607 575 540 525 541 505 497 486 505 524 699 542 482 487 469 649 632 508 486 557 594 601 624 640 612 620 610 590 572 553 550 542 511 506 501 496 515 515 485 510 518 520 498 469 427 425 422 408 404 420 398
540 587 736 609 602 498 473 567 781 630 613 729 689 534 531 497 493 496 567 455 456 443 443 450 517 504 444 411 414 454 378 381 463 572 554 550 545 509 477 423 394 385 398 395 397 430 444 442 443 436 426 418 408 395 409 406 401 438 440 479 430 380 381 399 396 358 354 276 269 282 293 330 325 313 316 356 317 316 320 356 383 417 382 383 374 426 456 425 571 592 461 429 418 451 479 668 605 587 573 523 505 502 500 499 554 705 710 690 676 668 651 632 598 578 573 556 565 590 614 627 654 609 600 591 592 563 564 562 555 531 524 496 475 512 484 495 512 504 480 497 438 425 443 461 410 411 400
608 629 761 713 611 547 476 531 705 659 584 660 674 548 499 501 521 591 550 472 510 555 534 488 552 530 493 415 399 441 386 434 528 575 546 540 532 507 486 449 404 374 372 361 380 389 403 402 393 412 469 487 430 374 424 409 377 398 404 460 434 388 350 377 374 361 331 272 271 300 293 316 327 348 331 344 350 369 331 365 381 431 433 427 395 417 460 515 562 644 641 484 445 448 526 706 638 563 555 537 524 512 611 569 689 690 707 683 674 659 644 623 624 616 582 549 555 587 597 609 623 623 614 629 575 555 550 557 557 553 537 543 480 480 503 507 492 498 464 442 435 481 492 477 449 391 411
734 683 682 763 613 566 476 517 641 675 567 571 687 557 522 555 618 592 562 506 507 546 527 500 531 558 517 434 398 404 380 410 563 554 553 530 523 493 474 457 407 381 370 366 365 380 390 376 378 409 434 422 419 343 343 349 370 390 394 445 412 406 339 326 358 360 286 280 290 334 306 318 335 365 362 367 394 361 343 365 414 443 494 509 407 407 443 661 738 714 687 474 469 516 618 591 581 566 574 729 584 554 638 723 690 692 706 684 667 651 648 636 649 639 605 582 538 543 585 605 603 603 598 588 567 558 540 537 542 548 531 537 514 471 472 461 453 454 457 429 461 494 485 470 474 415 415
740 688 627 688 653 530 477 532 743 688 567 553 548 540 559 686 649 608 519 518 567 547 536 506 459 436 436 514 417 399 385 405 455 537 529 519 504 485 462 437 420 380 365 365 359 369 387 377 369 377 448 416 389 367 351 341 336 369 413 408 412 365 365 318 293 285 288 274 311 334 312 318 333 364 397 404 433 412 393 405 487 528 651 602 444 413 444 507 732 718 743 730 507 689 729 597 684 594 723 684 613 713 704 716 723 694 699 682 658 648 653 653 654 641 629 595 538 549 548 583 603 587 621 580 564 561 545 526 516 544 495 493 474 465 449 454 448 441 448 465 474 465 460 462 435 411 408
744 702 638 585 608 552 485 535 651 681 590 555 548 549 650 663 646 615 525 604 574 562 524 510 454 445 431 432 469 399 395 395 455 494 517 491 474 452 453 447 428 376 345 385 362 357 379 375 348 361 418 415 396 410 410 428 329 399 412 367 356 310 294 292 290 298 302 292 334 356 317 322 332 378 389 372 437 464 424 410 438 607 678 666 541 438 432 438 631 624 705 711 689 679 641 614 694 741 728 728 759 719 703 731 724 679 676 668 651 651 661 667 672 647 616 578 569 548 540 540 606 558 553 579 572 555 550 517 517 538 489 466 460 463 449 469 520 498 493 474 465 460 436 423 416 410 414
654 703 676 565 581 564 494 516 602 706 675 583 561 685 656 636 577 563 553 612 602 564 488 468 459 457 442 427 422 413 405 405 516 521 514 484 463 445 439 433 425 407 390 379 360 353 348 345 343 357 420 364 350 406 371 362 310 318 302 297 297 293 297 345 315 327 349 305 313 345 337 332 336 348 342 355 372 376 456 458 466 578 668 674 656 498 439 440 465 514 542 704 687 749 733 743 749 750 756 740 720 711 705 709 697 688 675 682 656 658 645 661 667 637 604 578 567 584 546 530 520 553 557 554 564 563 543 531 518 493 485 476 468 477 483 480 506 495 476 475 457 443 425 419 419 419 414
570 566 669 559 534 539 503 519 568 732 703 640 725 685 637 613 579 618 621 590 564 498 484 502 501 470 471 548 544 429 411 440 505 508 493 478 460 447 437 422 415 411 416 418 405 380 364 339 334 333 341 326 323 329 327 327 303 299 297 297 299 296 336 372 351 331 353 329 324 334 350 354 348 346 344 345 346 346 419 448 553 649 566 654 646 675 505 456 475 479 583 704 735 775 773 782 796 758 746 724 709 712 707 696 694 680 673 674 655 653 650 684 667 654 645 611 616 587 572 530 514 513 498 487 520 539 542 485 474 490 505 491 485 465 461 448 461 487 456 448 441 427 423 422 424 423 425
561 560 556 550 530 520 514 535 590 724 684 690 690 699 670 668 636 602 579 572 507 512 512 533 526 510 562 539 504 435 425 502 527 518 503 491 476 464 446 436 422 413 430 411 393 381 393 352 336 326 325 314 314 316 311 310 306 299 301 388 368 309 316 354 368 350 368 345 349 379 393 397 375 369 379 417 395 362 399 466 594 628 520 559 562 568 527 529 578 563 648 750 767 770 764 767 761 759 740 744 730 705 703 696 701 683 671 659 678 658 645 672 662 661 641 612 609 603 585 571 528 505 513 508 501 504 490 485 485 544 483 467 479 472 438 430 441 465 423 424 430 428 423 420 414 416 423
589 620 593 539 530 531 676 570 581 732 682 658 669 669 705 668 630 601 572 519 512 602 571 578 552 569 558 519 448 443 483 519 516 499 500 481 472 449 458 432 428 432 421 411 390 374 367 351 347 336 340 347 371 305 304 310 310 308 367 387 360 321 316 321 351 372 378 378 374 388 421 437 417 394 414 609 503 398 398 429 541 572 484 505 528 625 644 660 710 747 742 778 749 774 779 748 728 736 723 723 743 725 697 697 684 670 663 645 636 625 625 676 660 640 648 623 609 600 569 549 544 494 551 533 517 509 511 499 506 508 460 452 442 439 438 427 385 441 418 421 427 423 419 405 414 425 419
634 678 677 564 535 555 692 694 633 698 672 644 656 648 695 647 611 594 546 529 558 595 599 602 591 582 577 528 462 543 533 517 496 482 467 469 464 452 443 438 427 407 399 407 393 366 355 338 323 303 314 311 295 301 306 316 357 358 402 383 360 350 330 330 337 351 365 378 402 448 480 487 452 435 431 696 632 489 418 427 455 478 482 517 556 643 686 685 704 730 755 764 735 752 779 769 733 723 729 695 722 725 697 698 682 676 668 666 665 643 624 664 667 639 636 621 608 604 565 562 561 547 563 572 544 523 524 524 518 496 453 442 408 438 417 416 431 430 426 415 413 407 404 405 424 422 420
664 712 660 570 553 553 688 738 726 691 654 610 636 625 637 675 625 587 554 545 564 592 557 573 591 557 501 484 470 540 510 495 487 476 465 463 456 448 445 451 423 410 388 382 377 389 347 326 310 310 314 305 304 304 309 313 313 397 402 384 365 358 354 341 344 352 364 376 393 465 458 484 539 572 572 677 620 472 445 440 446 466 497 575 665 703 693 696 717 703 762 768 745 745 757 765 754 723 742 712 751 734 717 699 693 700 693 678 642 626 620 632 650 622 614 611 606 600 603 589 585 585 575 567 543 523 495 484 492 478 456 444 438 439 426 427 418 425 379 418 419 419 426 420 420 425 417
755 710 654 626 575 573 724 727 686 663 617 592 590 614 638 665 621 596 557 555 596 596 546 538 525 511 505 540 557 524 487 468 458 452 460 461 453 443 445 458 433 438 415 381 365 348 339 327 313 314 310 308 307 318 342 337 331 357 402 388 374 370 363 354 362 368 384 377 391 421 447 510 600 637 657 697 680 565 489 530 453 453 502 587 699 683 709 722 713 702 753 776 766 781 731 770 739 747 727 715 713 722 729 695 691 689 676 661 653 626 600 591 628 632 614 609 598 597 584 581 571 583 572 562 558 526 493 481 491 480 471 439 438 445 421 431 434 429 413 413 414 414 422 418 408 419 419
820 843 803 726 604 588 613 720 687 627 603 576 573 611 620 671 641 598 581 568 581 588 555 531 522 528 532 507 469 451 444 435 439 446 453 468 466 457 426 404 436 450 424 396 369 339 330 323 320 328 318 325 401 352 401 338 354 360 368 384 403 398 388 384 372 384 394 396 401 414 429 460 491 602 658 654 659 704 708 714 475 472 484 598 663 623 639 659 664 721 737 771 795 775 747 737 726 737 724 731 709 708 703 700 695 692 679 666 658 644 617 568 622 624 619 611 595 590 567 580 564 579 574 563 547 543 526 498 523 509 481 467 453 430 425 436 434 427 424 420 412 422 417 422 428 430 423
816 802 766 736 718 715 625 643 660 637 612 581 557 579 567 609 645 617 591 596 597 620 585 541 541 532 523 501 467 460 435 403 462 464 454 467 473 471 462 394 373 357 344 292 337 341 345 332 339 345 325 329 392 425 392 350 348 381 384 389 403 441 445 387 391 423 445 405 417 485 445 461 491 621 622 667 694 710 700 698 699 564 488 628 675 603 621 679 667 736 755 770 791 792 761 740 745 743 728 723 722 720 704 709 715 704 669 660 649 636 620 568 552 622 616 604 584 578 572 574 564 566 573 544 553 536 530 526 522 512 495 487 446 413 430 427 434 427 426 430 425 428 426 438 426 422 435
765 754 793 745 714 693 674 662 654 613 613 612 549 534 537 542 569 626 633 678 654 618 571 555 556 509 478 462 478 473 416 381 369 368 435 426 459 444 476 459 353 339 333 305 350 412 384 366 376 402 374 355 417 430 388 365 367 365 410 418 435 457 495 426 469 467 438 417 423 457 503 538 629 701 637 644 688 679 667 655 698 680 519 521 618 581 588 689 715 731 755 769 779 787 790 739 773 745 734 716 721 703 717 727 716 691 669 649 645 635 607 577 546 537 534 602 582 543 543 566 544 555 567 570 558 553 536 514 513 512 453 440 435 418 416 432 431 428 437 434 435 444 445 443 436 432 451
553 622 692 699 747 726 692 765 669 620 599 563 554 538 520 515 590 625 596 573 605 609 586 581 536 539 484 392 384 375 375 377 368 368 363 357 357 344 354 353 351 348 449 354 354 431 430 417 508 402 402 374 389 407 388 375 378 385 397 421 445 455 490 472 475 466 451 473 448 449 475 498 543 653 648 659 665 676 656 657 685 699 554 517 539 570 672 736 744 732 750 740 790 754 749 744 764 753 763 746 712 692 718 720 704 689 673 659 655 647 638 635 622 606 504 478 489 525 510 555 525 516 550 562 565 534 531 502 464 453 431 440 439 439 440 437 432 437 426 442 447 451 460 445 437 431 434
541 563 575 668 684 743 799 743 650 620 603 584 555 519 510 500 607 618 585 524 511 585 604 587 493 411 386 386 388 404 416 476 487 368 359 368 363 358 351 351 353 442 456 413 375 395 407 412 453 482 446 429 427 421 387 375 389 385 410 422 485 483 502 554 537 511 491 524 492 471 473 498 654 670 724 692 646 667 660 683 711 719 738 662 614 602 643 682 706 729 782 742 760 763 752 735 754 776 734 735 715 677 711 698 682 687 674 662 659 659 646 647 641 626 620 512 487 477 491 529 497 511 568 544 533 507 529 467 452 443 438 440 443 437 441 441 419 437 433 454 447 436 458 447 450 434 436
543 527 573 668 660 777 776 776 769 647 620 592 544 538 593 491 500 622 625 517 487 464 436 417 393 389 387 416 518 492 497 499 492 374 374 502 493 465 465 488 354 366 440 434 385 386 407 407 412 424 466 482 451 414 400 388 411 414 448 472 479 521 518 551 584 615 553 615 544 501 490 592 691 701 742 720 687 671 668 665 732 761 738 700 694 660 678 696 697 713 734 733 750 781 789 731 731 730 734 728 718 667 650 654 663 664 661 629 650 650 646 647 629 621 605 580 501 477 483 493 497 568 514 501 484 499 459 440 446 441 438 441 442 441 444 449 454 451 425 442 457 458 461 451 459 441 442
537 493 621 594 617 700 781 730 738 682 622 578 553 557 563 493 490 549 646 634 543 453 449 407 390 394 480 430 518 505 509 497 406 375 476 505 493 459 462 464 436 365 425 415 384 412 436 462 437 424 431 447 444 412 411 421 424 458 513 533 595 600 605 620 615 636 692 626 533 501 504 685 642 683 676 689 690 654 654 667 706 728 725 681 660 671 680 697 680 696 729 739 744 758 769 756 745 724 720 736 712 692 643 604 584 663 664 616 525 488 482 630 631 596 504 465 471 473 472 472 503 526 490 488 471 458 414 440 445 446 438 442 393 447 449 448 447 456 444 452 465 423 455 453 460 441 439
458 480 571 588 587 621 754 644 675 632 643 590 582 557 534 508 474 483 636 646 578 530 477 409 394 528 518 490 506 509 510 495 472 374 380 488 501 484 456 446 430 382 412 413 420 413 409 426 472 482 459 459 440 422 430 444 463 482 508 545 556 600 644 697 684 763 728 751 676 530 517 633 621 651 656 674 662 654 653 639 659 670 677 675 663 664 672 679 695 699 729 724 754 727 765 741 728 737 715 717 708 697 657 615 572 580 661 515 507 488 471 549 478 470 473 471 513 542 527 471 472 464 476 466 464 455 419 446 444 444 434 438 367 447 448 444 458 457 446 452 480 472 463 469 458 443 446
439 613 747 600 546 633 658 587 574 560 617 610 598 561 532 518 478 456 638 647 586 590 494 545 395 409 442 514 501 509 508 520 502 390 378 425 490 480 466 452 445 380 411 417 447 435 417 428 434 471 472 466 446 437 431 456 466 485 516 604 628 687 697 732 754 750 739 739 721 705 539 594 630 638 663 661 652 660 656 640 640 660 666 646 674 678 718 689 709 756 746 711 738 677 683 691 727 734 728 719 704 685 664 681 633 572 534 505 508 506 476 484 479 487 495 490 525 582 546 499 473 469 467 457 461 450 454 455 444 445 446 448 448 450 451 420 456 470 452 445 488 478 475 473 457 458 450
427 633 746 589 515 568 578 653 521 511 656 580 550 523 526 476 461 453 583 643 628 574 489 409 399 399 403 408 489 475 475 492 477 450 390 390 472 477 472 464 445 396 407 410 465 477 455 488 465 468 489 457 448 455 460 477 521 510 512 556 614 687 795 763 752 734 733 743 757 734 723 663 665 681 664 678 659 701 690 675 620 620 639 641 694 707 728 709 695 711 757 710 690 677 628 680 733 717 717 710 698 680 693 676 660 596 630 511 506 607 492 501 504 589 555 490 564 565 534 499 513 481 473 462 452 449 439 452 441 442 450 456 453 457 454 439 450 470 448 440 473 480 477 475 460 473 451
453 694 616 620 499 513 575 493 493 509 626 561 528 514 510 493 454 451 543 635 575 418 413 406 413 496 419 404 421 433 467 485 492 488 464 389 422 479 459 442 436 407 406 403 411 488 508 489 490 481 486 472 468 479 490 497 629 586 542 559 730 703 738 763 744 737 709 738 793 746 703 676 682 689 698 688 703 698 712 691 655 629 623 670 684 694 707 728 696 688 724 727 694 681 628 588 649 693 694 705 701 659 672 597 494 505 520 510 539 613 624 577 578 586 548 490 564 568 539 540 527 483 458 430 438 440 449 452 452 456 454 454 456 391 400 426 460 471 445 458 458 492 486 472 466 466 453
575 659 539 627 480 544 551 469 493 615 643 564 532 580 550 526 446 443 438 430 426 416 486 468 427 415 414 432 424 429 466 469 497 488 496 402 406 478 466 452 435 420 410 410 415 413 435 449 479 490 495 515 530 520 614 610 623 580 566 571 650 695 743 778 747 714 711 727 746 686 694 675 676 700 727 703 719 716 695 698 656 648 618 629 600 610 674 692 727 688 691 726 711 704 709 600 582 574 567 572 646 554 554 551 509 508 511 522 531 595 605 590 559 559 589 555 535 532 500 480 480 455 445 435 444 449 457 451 452 457 452 464 458 441 458 457 463 473 454 455 450 474 493 469 469 475 456
605 558 506 552 467 576 501 459 612 659 624 577 540 602 566 558 477 536 567 437 434 559 521 429 420 420 489 463 431 431 500 508 522 510 491 487 421 456 473 470 468 447 436 434 436 436 444 445 467 480 496 548 582 610 606 723 625 625 634 695 724 716 735 757 755 716 709 734 716 701 691 690 698 718 735 728 712 721 705 689 666 640 611 609 606 602 602 673 728 691 681 662 697 682 687 599 590 586 567 562 554 548 543 534 521 522 504 556 582 615 578 571 560 533 536 512 498 481 491 469 448 455 456 458 458 449 451 452 451 455 464 471 435 429 455 467 462 473 476 460 461 467 500 478 474 480 461
599 557 471 532 461 522 493 444 527 548 607 577 555 561 628 545 531 531 517 472 447 426 430 428 443 497 483 448 449 457 490 502 475 468 466 478 407 432 448 455 529 538 474 470 453 455 495 468 470 487 497 512 563 578 601 701 781 768 756 769 738 711 706 765 716 703 714 747 715 710 699 699 702 718 717 717 723 722 709 696 694 700 638 643 671 626 599 596 708 715 701 651 642 637 622 619 612 698 647 697 682 649 617 504 504 507 505 527 554 609 579 552 528 515 501 491 486 480 469 455 451 458 463 472 457 457 454 458 457 465 470 456 455 445 455 458 463 471 492 458 458 467 500 482 474 485 473
634 512 454 438 452 480 430 438 455 472 580 614 643 567 633 577 645 531 534 580 428 433 478 523 510 491 476 465 488 498 485 462 456 455 453 451 430 426 416 447 472 512 516 495 475 454 484 502 484 484 492 503 522 540 629 785 792 770 747 734 743 694 693 699 675 703 725 735 709 685 668 706 726 741 725 709 714 705 700 713 706 706 713 701 751 701 602 594 634 705 707 691 698 716 708 697 703 693 695 669 624 554 543 500 499 505 507 522 560 598 552 529 521 510 486 486 482 486 464 455 450 458 470 475 466 455 460 461 458 484 475 479 471 466 461 466 467 455 485 474 465 459 482 495 489 485 473
615 547 453 425 452 456 414 501 536 502 539 600 639 579 642 627 644 614 590 576 430 449 533 528 517 493 476 481 494 543 482 462 464 472 450 438 438 436 414 430 512 531 522 517 496 475 487 509 510 503 509 545 542 537 583 710 795 779 762 732 707 692 697 688 674 718 724 693 665 666 694 737 750 722 710 720 718 714 692 716 705 720 718 685 755 693 648 591 595 709 696 715 718 722 697 705 671 677 662 662 658 549 534 541 493 502 508 530 567 560 530 520 509 488 485 492 471 480 458 451 457 471 473 470 472 457 458 459 456 478 487 483 479 471 462 472 467 459 493 479 456 458 474 497 493 487 483
550 577 456 391 441 448 410 431 452 488 607 629 626 583 653 647 640 625 595 578 436 504 535 537 512 490 496 505 557 510 477 468 510 484 464 461 474 479 430 433 429 495 499 513 531 494 497 538 541 528 517 530 609 560 579 649 746 708 764 732 716 722 754 728 673 722 726 709 661 627 703 752 746 737 706 734 727 690 693 717 708 729 680 662 691 677 685 594 583 696 641 681 719 700 659 684 661 653 630 632 612 566 548 525 491 500 522 545 557 548 528 520 512 490 481 476 464 456 457 453 460 477 476 474 483 454 463 467 468 472 481 495 493 469 467 464 472 476 486 482 464 467 473 475 497 497 487
501 507 540 365 381 367 400 496 498 488 580 614 589 597 657 642 644 621 475 450 441 465 572 545 513 510 514 506 499 492 473 469 548 504 450 516 521 506 476 452 451 469 499 525 544 516 526 536 581 566 554 541 567 574 585 593 649 695 774 750 764 764 745 776 678 670 709 698 701 624 708 761 723 717 726 719 742 725 766 733 700 719 717 679 675 661 660 586 576 608 656 704 713 657 626 643 651 654 630 603 583 571 570 496 495 506 532 557 555 537 524 518 504 509 477 467 456 451 456 456 475 482 488 493 494 461 479 470 466 470 471 475 498 476 442 458 469 481 494 490 470 475 483 476 501 499 490
482 455 497 362 347 363 457 642 589 538 582 648 603 615 662 649 659 639 483 447 557 590 584 557 533 543 533 522 501 492 490 483 535 525 509 538 529 520 540 526 460 469 496 507 529 545 547 550 575 666 655 606 600 671 707 606 653 758 751 737 821 810 770 778 743 654 710 690 686 622 735 754 742 734 687 719 725 739 717 717 713 695 713 711 715 686 661 602 581 602 723 695 689 638 622 624 651 641 618 610 643 619 574 489 491 520 550 528 519 499 492 489 483 478 457 457 450 456 439 439 479 486 497 503 479 477 491 478 461 469 473 473 497 489 458 459 472 481 501 501 475 474 483 480 503 504 497
406 365 363 328 336 444 490 652 620 610 615 640 606 614 666 655 656 640 492 450 525 588 572 553 553 591 587 551 544 561 523 495 497 555 550 559 549 557 533 522 476 492 503 536 540 555 571 591 639 733 866 692 694 782 682 632 646 747 733 713 815 790 766 754 746 673 710 688 686 683 735 748 738 741 719 721 725 749 717 715 683 690 710 693 683 684 632 578 578 640 696 678 655 616 601 621 648 640 623 618 643 584 547 495 489 492 521 511 528 505 493 482 477 462 454 457 458 457 443 427 445 481 493 491 478 471 493 506 470 469 474 477 473 498 476 475 474 480 509 508 487 467 499 485 510 505 497
311 319 325 319 385 454 591 662 641 667 659 640 623 621 651 657 664 654 494 454 482 576 517 546 542 564 606 620 613 588 549 533 511 543 569 569 558 547 530 508 479 494 514 528 555 572 595 617 793 810 809 831 826 734 687 657 655 688 719 723 708 703 767 737 731 672 671 674 684 714 770 773 742 747 736 723 720 721 674 676 698 671 689 680 680 668 613 571 568 648 666 672 592 596 600 621 663 654 655 625 605 561 533 521 495 491 515 510 522 505 500 472 457 458 463 447 469 461 472 470 473 489 510 491 485 472 505 511 469 477 475 476 479 488 484 483 474 475 509 516 494 485 505 492 509 507 501
381 396 327 328 477 502 603 668 654 678 670 649 640 640 641 656 659 646 522 463 460 461 511 562 528 575 563 586 642 629 582 542 530 538 588 572 553 550 526 507 486 507 549 554 572 645 679 664 721 801 796 792 854 868 791 691 712 740 716 711 703 691 691 728 711 717 664 618 684 718 739 767 745 745 747 726 701 706 683 669 662 662 638 616 607 643 626 588 559 562 620 596 562 577 622 637 680 627 587 562 508 504 498 498 492 497 501 482 469 472 465 464 459 464 452 460 458 466 469 488 481 484 493 502 508 481 487 501 465 468 372 480 480 483 484 479 478 477 512 513 484 481 516 496 515 510 504
439 445 334 334 461 463 671 668 661 658 667 647 648 645 644 663 658 649 633 512 466 459 483 544 528 542 552 573 640 622 598 579 562 566 596 577 573 549 536 515 500 511 526 554 627 685 741 796 798 815 781 779 840 852 807 729 763 833 848 798 797 797 676 689 752 713 675 638 725 741 748 757 738 741 736 736 715 715 702 698 680 653 638 604 601 622 642 633 570 552 552 571 566 583 632 605 586 529 521 511 504 504 519 508 478 474 478 466 469 458 469 463 464 464 457 464 468 471 478 490 495 484 501 501 497 483 483 503 471 475 337 472 477 467 483 483 483 475 505 515 509 490 494 499 517 513 476
596 483 402 354 365 404 489 673 664 658 660 656 650 651 676 672 656 649 643 626 530 457 487 515 540 542 566 621 603 628 605 608 615 631 623 604 591 568 543 515 513 536 565 591 648 644 675 736 773 793 781 764 785 831 847 805 842 828 801 836 832 803 768 659 704 744 663 658 723 731 765 726 729 735 702 708 712 703 679 678 689 700 673 616 556 588 614 635 593 557 542 536 559 562 562 532 516 505 503 515 520 543 524 499 474 477 492 497 482 476 470 467 470 466 467 468 464 476 477 503 488 482 502 527 498 484 493 521 487 473 474 470 470 450 487 482 478 484 504 520 515 495 498 505 518 517 475
698 595 459 405 370 454 523 675 667 660 660 655 654 653 681 667 659 635 653 627 590 463 477 543 545 561 553 548 549 559 570 606 626 646 615 571 546 544 533 520 519 530 577 633 649 622 653 728 744 758 847 778 769 805 849 843 869 847 821 830 819 782 765 640 658 738 637 676 721 734 749 733 729 736 716 719 736 700 701 659 706 706 669 602 558 640 655 673 583 575 578 539 523 513 505 515 515 524 548 548 538 548 523 483 476 466 471 492 493 488 484 478 478 469 473 468 466 481 471 487 492 495 501 521 528 479 482 530 505 487 484 475 479 477 496 488 485 480 500 539 509 496 510 510 532 524 508
681 661 557 480 382 442 571 681 675 670 669 658 651 655 667 671 657 642 624 576 517 474 508 508 546 531 535 544 547 580 571 580 607 631 595 571 551 549 540 537 530 528 546 565 589 627 741 760 702 717 822 771 744 768 861 852 870 855 820 834 812 787 763 688 665 672 645 648 688 714 729 736 737 740 741 727 726 713 700 686 705 718 673 613 528 608 611 664 602 549 549 544 549 525 496 502 507 532 533 534 547 528 507 480 475 474 475 476 482 492 499 479 476 479 466 472 486 498 473 478 489 506 516 533 535 498 484 525 508 491 460 472 473 485 490 485 491 494 504 535 516 498 516 528 537 524 501
709 641 630 548 409 418 547 653 681 676 674 665 646 657 665 665 650 641 631 619 576 468 486 491 516 528 543 595 654 638 618 583 592 602 598 586 579 567 567 573 565 561 542 563 612 687 816 765 679 689 811 779 740 735 842 848 850 830 791 800 778 770 725 691 675 653 666 615 650 685 738 744 754 746 727 727 724 711 707 697 686 699 668 654 524 529 619 605 616 551 498 499 499 497 494 491 493 484 485 487 497 513 497 480 475 481 480 487 491 486 481 458 482 482 479 477 494 512 502 476 480 490 519 539 539 514 491 527 533 498 471 480 478 489 471 492 485 497 501 531 521 514 520 534 553 525 495
648 613 567 554 422 418 467 556 692 683 685 656 642 640 654 664 662 652 638 629 550 483 477 590 560 534 538 545 554 574 623 621 602 600 633 608 614 602 591 586 587 590 563 561 579 654 751 734 686 703 804 790 719 711 840 854 855 845 790 766 782 795 732 696 738 663 645 623 637 702 727 743 756 741 727 735 724 715 705 697 681 651 648 576 536 522 514 530 595 544 492 504 530 517 511 513 508 479 480 481 479 485 478 482 481 496 496 500 497 509 490 485 472 471 477 484 482 502 510 498 481 482 508 517 541 527 496 493 509 497 471 456 483 491 464 490 490 488 504 538 530 523 530 532 558 517 496
676 633 599 536 456 429 483 676 693 680 675 656 645 641 653 668 685 660 646 623 528 490 492 587 565 550 550 569 566 572 588 636 652 610 633 641 655 677 633 686 633 625 661 576 579 600 649 677 677 716 830 793 727 710 845 847 852 821 794 774 768 801 755 737 703 717 640 632 630 682 738 739 765 768 767 729 725 694 672 682 660 614 592 550 546 609 509 507 513 507 499 506 538 530 534 542 521 487 492 483 479 483 487 481 479 489 507 512 497 507 491 490 475 472 488 486 487 504 508 515 492 485 490 522 552 532 499 504 532 492 490 413 491 497 483 492 494 474 510 536 534 525 541 541 537 486 492
785 775 786 684 495 452 460 628 715 685 689 672 660 638 641 674 686 670 650 632 617 531 479 591 578 563 578 599 668 620 602 632 669 615 635 668 748 821 791 773 767 822 745 702 635 624 630 640 661 701 729 722 716 714 735 853 837 812 795 811 735 717 707 735 704 705 637 626 640 752 767 762 787 759 756 729 727 690 671 658 689 618 548 573 604 665 568 528 506 499 519 526 534 545 549 559 519 514 510 488 487 481 475 484 498 491 502 501 490 497 487 476 477 484 480 476 485 490 515 512 519 483 488 503 539 525 499 512 528 495 491 489 484 492 497 492 495 493 499 526 541 533 554 560 510 487 499
782 700 680 711 496 496 541 622 754 714 702 683 674 643 636 651 669 668 673 625 610 506 501 513 550 564 572 604 680 629 634 650 661 648 633 666 718 805 735 731 744 772 805 747 713 677 671 703 682 736 732 728 716 704 693 685 812 791 794 784 785 717 706 671 684 710 702 623 648 714 775 765 786 786 756 740 714 687 643 618 640 591 561 605 615 657 576 499 495 497 463 466 545 569 577 558 516 513 506 502 510 481 483 496 505 519 506 500 489 491 485 483 491 480 480 482 496 495 513 511 535 491 489 507 536 537 501 517 542 488 494 474 477 480 485 501 498 498 511 526 560 544 564 516 483 501 523
748 689 658 643 678 577 634 702 749 714 703 685 670 659 635 630 634 660 680 645 617 594 513 516 554 577 614 627 627 653 675 672 676 664 646 647 658 703 691 718 770 771 777 785 819 748 724 778 735 864 866 874 853 838 689 678 679 668 712 789 766 714 700 684 674 710 668 622 704 760 762 772 755 747 748 697 664 661 619 616 604 607 617 650 621 546 532 514 457 502 531 549 562 561 543 531 514 519 514 514 508 500 487 494 506 505 509 496 496 491 494 495 496 485 489 493 498 494 506 525 528 526 494 501 530 543 517 521 540 506 495 471 481 503 505 511 495 495 485 522 572 573 548 517 492 508 525
757 682 657 642 629 616 708 760 741 716 699 691 670 665 653 633 626 676 684 657 650 622 523 524 564 574 577 590 624 686 700 697 696 688 676 669 667 680 691 777 897 812 763 760 865 799 880 860 815 870 870 852 848 833 818 678 677 657 678 759 744 717 687 674 662 659 639 628 705 759 775 782 747 733 739 705 648 639 629 613 625 642 644 669 551 540 536 509 492 481 521 542 557 564 542 543 535 511 529 510 517 506 497 484 496 500 514 511 499 499 506 509 491 486 491 497 503 504 503 510 518 541 500 503 509 519 524 520 551 539 508 499 484 502 512 534 514 510 511 516 546 578 548 508 509 532 527
702 682 678 661 657 703 718 759 736 724 687 688 683 657 645 664 619 653 703 669 642 624 541 542 546 562 560 580 602 662 664 678 699 724 730 802 863 809 787 778 816 816 757 750 801 764 869 911 878 880 868 840 834 838 827 795 780 658 660 762 751 713 687 695 634 631 618 631 683 788 776 744 747 723 728 681 673 641 632 636 657 608 597 594 527 527 468 497 489 502 520 540 562 570 564 547 533 535 527 525 511 516 510 512 501 510 518 517 519 507 508 495 494 495 494 502 517 512 506 506 514 542 503 508 522 522 531 524 558 540 517 500 501 503 530 542 516 516 512 514 521 576 511 497 520 544 540
710 710 746 752 757 740 734 743 738 724 693 676 694 673 631 631 616 614 703 682 657 630 605 544 542 550 558 585 637 674 656 670 702 731 775 774 944 858 806 860 820 796 772 743 743 756 823 882 864 871 873 858 832 843 836 804 775 660 639 706 761 761 742 727 634 611 616 652 712 771 765 699 696 682 686 631 606 642 674 675 655 612 561 553 528 520 516 498 500 509 515 554 596 587 584 564 553 540 517 528 518 525 515 516 504 500 538 526 514 508 497 496 493 495 496 505 526 518 546 510 512 520 529 507 511 537 552 532 560 559 529 505 505 511 519 544 532 538 518 516 519 576 511 513 524 541 543
757 744 861 783 768 738 726 710 705 690 694 671 651 646 624 620 610 606 672 681 654 623 608 576 551 549 560 610 639 628 646 673 725 826 774 762 844 811 779 861 879 874 866 763 727 768 882 872 860 862 866 859 835 846 826 816 803 749 641 661 710 774 732 717 662 618 611 659 669 735 769 700 690 670 691 621 592 581 564 568 574 562 536 548 529 521 514 502 515 516 510 564 626 611 578 553 541 539 549 542 543 524 517 525 523 539 534 531 518 462 488 494 493 494 509 507 521 538 565 523 515 514 538 509 499 504 540 549 588 572 537 510 507 506 512 539 557 544 522 524 523 536 523 512 543 546 545
795 782 838 794 836 812 750 738 732 685 687 671 654 630 629 617 606 597 620 677 647 624 596 561 553 555 629 618 632 619 634 665 794 797 791 762 771 762 760 858 893 879 877 715 723 859 869 859 886 855 853 841 839 838 834 825 785 750 636 656 709 766 755 724 649 610 602 637 666 751 735 716 675 670 656 636 603 568 557 549 544 536 523 518 521 511 512 515 533 525 520 523 576 588 574 563 554 548 556 554 553 552 543 556 540 465 501 541 542 484 476 475 496 507 504 505 508 530 555 547 536 496 548 532 499 504 551 571 596 586 543 504 512 491 501 524 544 558 530 528 521 527 525 525 533 547 547
821 821 805 794 784 825 775 751 724 717 719 696 669 664 622 617 605 597 560 589 611 622 564 562 556 557 574 610 624 600 636 691 755 780 780 764 757 746 739 779 890 795 724 700 726 864 867 852 885 870 846 846 847 825 825 828 789 753 646 642 635 646 755 703 637 607 598 593 684 728 705 713 667 653 656 614 576 558 542 535 537 526 526 522 514 516 512 516 547 536 525 525 555 580 569 562 564 559 573 573 580 570 571 566 571 549 547 564 561 480 467 479 514 529 522 514 504 520 548 566 541 498 541 547 508 517 540 554 577 581 545 514 514 503 504 550 581 541 527 530 523 526 533 528 529 534 559
821 801 791 781 770 769 785 739 731 749 712 689 679 654 633 621 618 645 609 586 586 577 581 564 558 562 565 576 592 607 657 692 756 756 843 896 887 826 731 720 768 772 714 698 874 868 861 833 846 864 841 824 838 840 821 803 774 764 706 624 628 647 700 721 644 620 597 591 685 725 683 643 643 625 615 614 561 546 540 544 543 540 542 516 515 513 516 548 547 541 530 535 560 573 572 566 573 573 565 566 593 585 582 586 582 566 575 570 540 526 502 498 467 554 556 523 527 514 512 563 545 491 545 543 503 502 537 561 591 570 535 511 518 509 516 533 571 540 531 530 513 516 538 541 531 533 531
810 801 801 805 774 761 761 735 727 731 715 686 671 661 637 621 667 660 674 648 585 583 588 576 575 590 573 577 612 629 655 664 692 740 870 930 889 897 810 722 703 807 714 692 831 850 857 856 838 840 830 832 824 823 794 778 770 745 722 624 617 608 697 724 661 606 596 591 686 674 643 620 620 624 629 631 560 509 569 548 559 545 568 517 516 513 511 543 556 545 530 538 543 552 558 569 571 571 561 561 594 591 584 586 563 568 579 571 550 531 505 497 564 553 567 537 552 521 513 551 550 507 534 551 515 498 530 548 585 588 535 516 521 512 515 526 536 541 535 531 519 537 549 551 542 534 533
830 847 808 789 796 763 756 756 726 717 700 693 671 652 632 641 692 688 675 640 624 596 589 602 596 642 614 583 591 617 648 663 689 814 934 909 884 892 803 740 702 692 696 673 796 859 847 833 828 816 823 828 796 786 774 750 751 739 734 721 606 613 635 699 709 664 598 594 604 635 604 598 582 589 639 614 588 586 590 580 556 547 527 517 519 511 521 511 527 549 545 548 549 551 561 559 559 566 560 566 597 602 604 593 568 562 547 558 551 521 506 517 570 577 570 559 558 530 530 546 547 531 541 568 528 527 529 538 549 592 558 514 514 521 518 519 519 538 536 520 531 542 553 554 537 542 534
875 839 824 786 771 749 741 765 738 734 706 685 670 659 656 729 692 687 643 618 609 601 611 656 646 636 619 609 598 613 643 667 708 924 931 907 890 883 847 879 726 692 689 678 734 847 860 854 816 808 810 818 803 774 747 773 712 717 704 709 626 592 609 657 709 654 602 603 595 590 593 588 579 579 610 567 564 590 581 581 558 542 515 521 518 520 541 498 508 580 547 550 544 576 562 562 558 558 551 560 594 594 593 576 572 552 547 558 552 511 503 536 517 578 573 575 570 551 542 549 538 535 545 586 548 550 531 534 550 599 551 524 505 526 522 504 502 537 536 536 539 569 592 568 564 553 545
