ncols         183
nrows         130
xllcorner     487051.082872
yllcorner     1226963.33229
cellsize      100
NODATA_value  -9999
316 318 322 325 329 334 344 344 340 338 335 332 329 326 324 321 319 317 314 313 313 313 313 313 313 313 316 322 326 326 332 339 340 334 332 331 330 329 326 322 320 318 317 317 315 313 307 306 302 299 296 295 294 290 291 292 292 295 296 297 299 301 303 305 307 308 309 308 307 308 310 310 311 315 317 318 317 317 317 317 315 314 311 307 303 300 298 300 302 301 299 297 293 290 290 291 291 290 291 291 287 287 288 289 288 288 288 285 284 285 283 282 280 280 281 280 278 276 275 275 274 273 272 273 275 274 273 273 274 274 274 275 277 277 278 279 278 277 279 279 279 277 276 276 276 276 276 275 275 275 275 275 275 276 275 275 276 276 274 272 271 272 272 271 269 265 266 265 265 264 261 258 257 258 259 258 257 257 257 257 257 257 257
317 319 320 324 327 330 339 343 341 343 342 338 333 329 325 323 321 318 315 313 313 313 313 313 313 315 320 328 331 332 337 342 341 336 334 332 330 328 325 322 320 318 316 315 314 313 308 306 301 298 295 295 295 291 290 290 291 292 295 296 299 299 301 303 305 306 305 305 305 307 309 310 311 315 317 317 316 315 315 315 314 314 313 309 305 302 298 297 299 298 297 295 292 290 290 290 290 289 287 287 288 287 287 290 289 287 288 285 284 283 280 281 279 279 280 279 277 275 274 273 273 273 273 272 274 274 273 274 274 274 274 275 278 280 279 279 281 277 276 276 277 276 275 276 276 274 274 274 274 274 275 274 274 274 273 272 274 274 272 271 270 271 272 271 269 266 262 262 262 262 261 259 257 257 257 257 257 257 257 257 257 257 257
317 317 319 322 325 327 331 337 339 346 349 343 335 330 325 323 321 319 316 314 313 313 313 313 315 318 323 331 336 339 342 343 341 338 336 333 330 328 326 324 321 318 316 315 313 312 306 304 302 298 297 296 296 291 289 289 290 290 293 293 296 297 299 301 303 304 304 304 305 307 308 309 310 315 317 316 315 314 312 311 310 312 313 310 306 302 298 297 295 294 294 293 290 288 287 287 287 287 285 285 288 286 285 288 289 287 286 284 283 281 280 279 278 278 277 276 276 274 273 272 273 274 273 272 272 272 273 273 273 274 275 274 276 279 277 278 280 275 275 274 275 275 276 276 275 274 275 274 274 275 274 273 273 274 272 271 272 272 272 271 270 271 271 270 269 268 261 262 263 262 261 258 257 257 257 258 258 258 257 258 257 258 258
316 317 318 320 323 325 327 332 335 342 347 344 336 330 326 324 321 319 317 316 314 314 313 314 316 321 326 332 340 344 345 343 342 338 336 335 332 329 325 323 321 318 316 314 312 311 305 303 301 299 297 296 295 291 289 289 290 291 290 292 295 296 298 300 301 302 303 304 306 307 308 310 312 315 317 316 314 312 310 308 307 308 310 309 305 300 298 297 294 292 292 292 289 287 286 285 285 285 285 285 286 284 284 286 288 287 284 282 282 279 279 278 277 276 274 274 276 273 271 271 272 271 273 271 271 272 272 272 273 275 277 275 276 278 276 277 277 273 275 274 274 273 275 275 275 274 275 274 274 275 274 274 273 273 271 270 271 273 272 269 269 269 268 268 269 269 263 260 261 260 259 258 257 257 257 258 260 258 257 258 257 258 259
316 317 318 318 321 323 326 332 334 339 342 342 337 331 327 325 322 321 320 318 315 314 313 314 318 323 327 332 340 345 345 342 342 339 337 336 333 328 324 321 319 316 314 313 311 309 303 300 299 299 296 294 292 291 290 289 289 289 289 292 293 295 296 297 297 299 302 304 307 308 309 311 313 315 317 316 313 310 308 306 305 304 305 306 303 298 296 295 293 291 290 290 288 287 286 285 284 285 284 283 283 283 282 283 284 282 280 279 279 277 277 277 277 274 272 273 274 273 271 270 269 269 271 270 271 273 271 271 272 274 276 274 275 275 274 275 273 272 273 274 272 272 272 273 273 274 275 274 275 274 275 274 273 272 270 269 270 271 270 267 265 266 267 268 269 268 263 259 258 257 257 257 257 257 257 257 259 259 258 257 259 261 260
315 317 318 319 320 323 326 336 338 339 340 340 337 334 330 328 326 325 323 322 317 315 315 314 318 322 326 331 339 345 344 342 340 336 334 332 330 329 326 319 315 312 310 308 305 303 301 300 296 294 293 293 292 293 293 293 289 289 289 290 291 291 293 295 296 296 299 303 306 307 309 309 310 311 309 308 309 307 305 302 299 297 297 298 300 298 294 293 292 292 292 291 290 288 284 282 283 284 283 281 279 278 277 277 278 278 278 276 275 274 273 272 272 271 271 270 268 269 269 269 265 266 267 268 269 269 270 269 269 270 269 270 271 270 268 271 271 269 269 270 271 271 271 272 272 270 271 271 272 273 273 274 273 269 268 268 268 267 265 265 264 262 263 265 265 265 264 263 261 260 258 257 258 258 258 258 258 260 260 259 261 262 263
315 316 316 317 319 322 326 336 337 339 341 342 339 335 333 330 329 326 324 322 318 316 316 315 317 323 328 330 336 343 344 342 339 336 334 332 330 329 325 319 313 311 309 306 303 301 301 298 295 293 295 294 294 294 294 292 291 289 289 289 290 291 293 295 296 296 298 302 304 306 308 309 309 307 306 305 305 303 303 302 300 298 296 297 300 300 295 292 292 293 293 292 291 289 285 282 282 283 282 281 278 278 277 276 276 277 277 275 275 273 272 270 270 268 269 269 268 269 267 267 265 265 265 266 267 268 268 268 267 266 266 267 267 268 266 267 268 267 266 267 268 269 271 269 270 269 270 270 271 272 271 270 270 268 268 267 266 265 265 264 264 262 263 265 264 263 261 261 262 260 257 257 257 258 259 258 257 258 259 261 262 263 264
314 315 315 316 318 322 326 335 337 338 340 342 341 338 336 333 331 329 327 326 321 319 317 316 318 324 328 329 333 340 344 343 341 336 333 331 329 327 321 315 309 308 307 305 302 301 298 297 296 295 297 298 297 295 296 293 291 291 289 289 290 291 292 294 294 295 298 302 303 304 305 306 306 305 304 302 300 299 301 304 302 300 296 295 297 297 293 291 291 292 293 292 291 288 285 282 280 281 281 280 278 278 277 276 276 275 274 274 273 272 273 271 269 268 269 268 267 266 265 265 265 265 266 265 266 268 267 268 266 265 265 265 265 266 265 266 265 266 265 266 266 268 270 267 267 268 268 268 269 269 269 269 268 267 267 267 264 262 263 263 263 262 263 264 262 263 260 259 260 258 257 257 257 257 257 257 257 257 259 262 264 266 267
314 315 316 317 319 322 325 332 334 336 338 340 341 341 339 337 334 331 329 328 324 323 319 317 319 323 326 328 331 338 344 344 341 336 333 329 327 323 316 310 306 305 304 303 300 299 297 298 299 298 299 301 299 297 297 294 292 292 290 289 290 292 292 292 292 294 298 302 303 303 303 303 303 303 302 300 298 296 298 301 301 300 297 293 293 292 291 289 289 290 290 290 289 287 284 282 280 280 280 279 276 277 278 276 277 275 273 274 271 272 271 271 269 267 267 266 265 265 265 265 265 265 265 265 265 267 265 266 266 265 265 265 265 265 266 266 265 266 264 267 266 265 267 266 267 268 267 267 267 266 268 268 267 266 265 265 263 261 262 262 262 262 262 261 260 262 260 259 258 257 257 257 257 257 257 257 258 259 261 264 267 268 268
314 315 315 317 319 321 324 330 332 334 337 340 343 345 346 344 338 334 330 328 325 324 322 320 319 322 324 327 331 338 345 344 341 336 332 327 322 317 312 308 305 303 302 300 299 298 297 298 300 300 302 304 301 300 296 293 293 290 291 291 289 288 289 291 292 294 298 300 302 302 302 301 301 302 302 300 297 295 297 298 298 296 294 292 292 291 288 288 288 289 289 290 289 288 285 282 280 279 279 278 276 276 276 274 274 275 273 273 271 272 270 269 267 267 266 265 266 265 265 267 266 265 265 265 265 265 265 265 265 265 265 265 265 265 265 265 265 264 263 268 265 265 265 265 267 267 268 267 266 266 267 267 266 264 263 262 261 260 262 261 261 261 260 259 259 260 260 259 258 258 257 257 257 258 259 260 262 263 264 267 269 269 268
315 315 316 317 319 320 324 330 331 334 337 343 351 359 360 353 344 337 332 330 326 325 324 322 320 321 323 325 329 337 344 343 340 335 331 325 319 312 309 306 304 302 301 300 299 299 300 301 302 303 305 307 307 304 298 294 294 290 291 290 286 286 288 291 292 295 297 298 299 300 300 299 300 306 306 301 297 295 296 296 295 293 290 290 290 290 286 285 286 288 288 290 289 288 286 283 280 278 278 277 276 274 273 273 273 273 272 272 270 269 268 267 266 266 267 266 266 265 265 266 265 265 265 266 266 265 266 265 265 265 265 266 265 265 265 265 265 263 263 265 263 264 264 263 264 265 268 266 265 265 264 264 264 264 263 261 260 260 260 260 260 260 259 259 259 259 259 259 259 258 257 257 257 259 260 261 263 264 265 269 270 270 269
318 316 316 318 320 322 325 331 334 336 340 349 363 375 375 362 349 342 336 332 328 326 325 324 322 321 321 322 324 329 336 340 340 334 331 326 319 311 307 305 303 302 302 302 301 302 303 305 305 307 309 308 309 307 304 297 294 291 290 288 285 286 289 291 291 294 296 297 298 298 299 298 298 309 311 303 297 295 295 294 292 290 287 288 289 288 284 284 285 286 287 288 288 288 286 282 280 278 276 276 275 273 271 272 272 272 271 271 268 267 266 266 266 268 268 266 266 265 265 265 265 265 265 267 268 266 267 267 267 266 265 267 267 267 265 265 266 264 264 263 262 263 264 262 262 262 265 265 264 263 262 261 260 261 261 260 260 260 260 260 260 260 259 259 259 259 261 261 259 258 259 259 259 261 261 261 262 263 266 270 270 270 272
320 317 316 319 322 324 327 333 336 339 344 355 371 385 384 371 358 348 341 336 330 328 326 325 323 321 321 321 321 322 327 332 336 333 330 327 322 313 306 304 303 303 304 305 305 305 307 308 309 311 312 309 308 306 306 300 296 292 291 288 285 285 287 288 290 292 294 295 296 296 296 295 295 303 306 299 294 292 292 292 292 290 286 286 286 286 284 284 286 286 286 287 287 287 286 282 280 278 276 275 274 272 271 272 272 270 269 269 267 267 266 266 266 268 267 267 269 267 266 267 267 265 266 268 269 267 267 269 270 268 268 268 268 269 267 265 264 264 263 262 263 262 262 261 261 260 261 263 263 261 260 260 260 260 260 260 260 260 260 260 260 260 259 259 259 260 262 262 259 258 259 260 261 262 262 262 264 266 270 272 272 272 273
323 320 318 320 323 326 328 335 338 341 347 357 371 383 388 382 370 357 347 340 332 330 328 325 324 321 321 321 321 321 321 324 327 327 324 323 320 312 306 304 303 304 305 307 309 310 311 311 311 312 311 309 307 306 306 301 296 292 291 288 284 285 285 285 287 289 292 293 294 294 294 292 291 293 295 292 290 289 290 290 290 289 287 285 283 284 283 284 284 284 285 285 285 285 285 282 279 277 275 274 272 272 271 270 270 269 268 267 267 267 266 266 268 267 268 269 271 270 269 271 269 268 269 269 268 267 268 271 271 270 270 269 268 268 269 267 263 263 263 263 263 261 261 260 260 260 260 261 260 260 260 260 260 260 260 260 260 260 261 262 261 261 260 259 259 259 260 260 259 259 260 260 261 262 265 266 267 269 271 272 273 273 274
326 323 321 322 324 327 330 338 341 344 350 357 367 378 390 394 385 370 355 345 334 331 329 325 324 321 321 321 321 321 321 321 322 317 316 315 313 309 305 305 305 306 308 310 312 313 314 313 311 310 309 307 306 305 303 299 296 293 291 290 285 284 284 284 286 288 290 291 292 292 293 292 290 288 289 289 288 287 287 287 287 286 284 284 282 282 282 283 283 283 283 284 284 284 283 281 278 275 274 274 271 270 269 268 268 269 267 267 267 267 266 266 270 268 268 270 270 271 271 274 273 272 273 272 270 268 270 271 270 271 273 271 270 270 270 268 265 263 264 264 263 260 260 261 260 260 260 260 261 260 260 260 260 260 260 260 261 263 263 263 263 262 261 259 260 261 259 259 259 260 261 260 261 262 265 267 268 270 271 273 274 274 274
329 325 322 323 325 328 331 340 344 349 354 360 365 374 387 397 393 379 362 347 335 333 330 326 324 322 321 321 321 321 321 326 330 316 314 311 308 307 306 307 309 309 311 313 315 316 314 313 309 308 308 306 304 303 301 298 297 295 292 290 287 286 285 283 285 286 287 288 290 290 291 291 290 287 286 286 285 285 284 283 284 284 283 283 281 281 282 282 282 282 282 283 283 282 281 279 277 275 274 273 271 269 269 268 267 268 267 267 267 268 267 267 271 270 269 269 271 274 274 276 277 276 276 275 274 272 272 272 272 275 275 272 272 272 272 270 269 267 265 266 267 262 261 261 260 260 260 260 261 260 261 260 260 260 260 261 264 264 264 264 264 262 260 259 260 261 260 259 259 260 261 260 261 262 266 268 268 270 272 273 275 276 276
330 325 322 323 327 331 336 346 351 356 363 371 375 377 386 395 392 379 363 349 336 333 331 327 326 323 321 321 321 321 323 334 340 327 321 314 310 307 308 310 314 315 315 316 317 317 314 312 308 307 306 306 302 301 299 297 297 294 292 291 287 287 285 283 282 283 284 286 288 289 289 289 289 285 285 285 285 284 283 283 283 282 282 282 280 281 282 281 281 281 281 281 281 281 282 280 279 277 275 274 271 270 269 267 267 267 267 267 267 268 268 268 270 270 270 270 273 278 276 277 278 278 278 278 277 276 274 273 273 275 275 273 272 273 272 271 270 268 266 269 267 264 261 261 260 261 261 261 261 261 262 262 261 261 263 266 268 267 265 265 263 262 260 260 260 260 260 259 259 260 261 260 261 263 267 268 268 269 271 274 276 277 279
330 326 324 324 329 337 346 356 360 364 373 387 394 393 396 397 386 372 360 350 336 334 332 330 327 324 321 321 321 321 324 336 343 335 327 316 311 309 312 317 321 322 321 320 320 319 314 311 309 306 304 304 302 299 298 298 296 293 291 292 288 287 285 283 282 282 282 284 286 287 287 286 286 285 286 286 285 283 282 283 282 280 280 281 280 280 280 280 279 279 279 279 279 279 281 281 279 277 276 274 271 270 269 267 267 267 267 267 267 269 268 269 270 270 272 273 275 278 277 278 278 279 280 280 279 277 275 275 276 278 278 275 274 273 272 270 271 269 267 268 265 263 261 261 261 263 263 262 262 262 262 263 264 264 266 269 270 269 265 263 261 261 261 261 260 261 260 259 259 259 260 262 263 265 267 267 268 268 270 275 276 278 280
334 332 330 330 332 339 348 369 372 376 387 402 413 416 415 410 398 384 373 358 342 340 336 332 330 326 323 322 321 321 324 331 340 332 321 315 319 323 326 328 327 326 325 325 324 321 315 312 312 311 305 302 301 301 300 297 296 294 293 291 289 288 286 285 283 282 282 282 282 283 283 283 283 283 283 282 283 284 282 281 279 279 279 280 280 279 278 278 278 278 278 278 278 278 277 277 276 274 273 271 270 270 269 268 267 267 268 269 269 270 271 272 273 278 278 278 277 280 282 282 281 282 282 282 281 280 279 278 280 280 279 279 278 276 276 273 275 272 271 267 265 266 265 266 265 265 264 264 265 264 263 262 264 270 271 270 271 269 266 266 265 264 263 263 263 262 259 259 260 261 262 263 265 268 270 270 271 273 274 277 281 282 281
337 334 332 332 332 337 345 366 371 377 388 398 403 402 402 401 399 392 382 365 348 348 342 336 331 327 326 323 321 321 325 328 333 324 319 322 328 330 332 331 329 327 326 326 323 320 316 314 315 313 306 305 305 304 303 300 297 292 291 290 290 288 286 286 284 283 282 282 282 282 282 282 282 281 280 280 282 282 281 280 278 279 279 277 278 278 277 277 278 278 278 278 278 277 276 275 274 273 272 271 270 270 270 269 268 268 270 271 271 271 271 272 274 279 279 279 279 281 283 283 283 284 285 283 283 283 281 281 281 280 280 279 278 277 277 273 272 271 271 268 266 267 266 267 268 267 266 264 264 264 263 263 265 272 271 271 270 268 265 265 265 263 263 265 265 264 260 260 261 262 262 262 264 267 269 270 272 274 275 278 281 283 282
337 334 332 331 332 337 343 359 364 371 380 386 387 383 385 393 399 393 379 365 358 358 351 341 334 330 327 325 322 323 325 324 324 320 325 332 335 334 335 332 330 328 327 326 321 320 318 316 317 314 308 307 307 306 305 302 295 291 290 290 290 288 287 287 286 285 283 282 282 282 282 282 283 280 279 280 282 282 281 279 277 278 277 275 276 276 276 276 277 278 277 276 276 275 275 275 273 272 272 271 271 271 271 270 270 270 271 274 275 273 272 274 275 279 280 281 283 283 285 286 286 288 286 284 285 284 284 284 283 280 280 279 277 277 274 273 271 269 269 267 267 269 268 268 269 269 267 265 264 264 265 265 266 270 271 271 270 267 266 266 266 265 265 264 265 265 260 260 261 263 263 262 263 265 268 271 273 275 277 280 281 283 283
337 332 330 329 330 332 336 349 354 360 366 370 371 371 378 395 401 390 376 367 361 358 349 340 336 332 327 326 325 327 328 326 324 323 334 339 338 337 336 333 330 328 327 326 322 320 320 317 316 310 305 306 306 304 304 300 295 291 290 290 291 289 288 289 288 286 283 282 282 282 282 282 282 279 278 279 279 280 279 278 277 277 276 274 275 275 275 276 275 274 274 274 274 274 274 273 272 271 271 271 271 271 272 272 273 271 271 273 276 276 276 277 277 279 281 283 284 285 288 288 288 288 288 289 289 286 286 284 282 280 280 279 279 276 273 271 270 268 268 268 269 270 269 270 270 269 266 267 266 266 267 267 267 270 271 271 270 267 266 266 265 265 265 263 263 265 260 260 260 264 264 264 265 266 268 270 272 274 276 281 282 283 283
341 333 329 327 327 328 330 340 345 350 354 357 360 364 375 391 398 393 385 380 364 353 344 338 336 332 330 327 329 332 333 337 333 329 342 342 340 339 337 334 331 328 327 327 324 320 319 317 312 305 302 304 303 300 299 297 295 292 291 292 291 290 289 289 288 286 283 282 282 282 282 282 281 280 279 278 278 277 277 276 275 275 275 275 274 274 274 275 273 272 273 273 272 272 272 272 272 271 271 271 271 271 272 274 274 272 272 273 274 277 277 279 282 281 282 285 285 288 290 290 290 289 291 293 292 289 286 284 281 280 280 280 277 275 272 271 270 269 269 270 271 270 272 272 269 267 266 266 266 266 266 267 268 272 272 271 270 267 266 265 265 265 264 262 261 261 260 261 261 265 266 265 266 267 269 271 273 275 276 281 282 284 284
350 338 330 325 324 326 328 336 339 343 347 353 360 366 375 387 397 401 399 390 366 355 345 339 336 334 331 328 330 336 342 345 335 336 345 344 342 340 338 335 333 329 327 326 324 321 318 314 306 302 302 301 300 299 296 296 296 294 292 292 289 289 288 288 287 284 283 282 282 282 282 282 281 282 282 280 278 276 276 275 276 276 276 276 274 274 273 273 272 272 273 272 271 271 271 271 272 271 271 271 271 272 272 272 273 273 273 274 275 277 278 279 282 282 283 284 285 288 292 293 292 293 295 294 292 291 286 285 282 283 283 282 277 275 274 272 271 271 273 272 272 273 274 272 269 268 266 267 269 268 267 268 269 273 274 273 271 268 266 266 266 264 262 261 261 261 260 260 263 266 265 266 268 270 273 274 274 276 278 281 281 283 285
360 352 339 326 322 325 328 335 337 340 346 355 363 371 380 392 399 398 390 381 361 353 345 340 336 332 330 329 330 337 346 339 330 343 346 345 344 341 339 336 335 332 327 324 321 320 313 307 303 301 301 300 300 297 296 295 297 296 294 292 288 289 288 287 286 286 285 282 282 283 283 282 282 285 284 281 278 276 275 276 277 276 277 279 277 275 274 272 271 271 272 272 271 271 271 271 271 271 271 272 274 274 273 273 274 275 275 276 278 283 282 280 280 282 285 285 284 287 290 293 295 297 297 295 293 292 288 286 283 284 282 280 277 276 274 272 272 272 273 278 277 274 273 272 270 268 267 269 272 270 268 270 272 273 273 272 270 269 267 266 266 264 261 260 261 261 260 262 263 264 265 268 269 271 274 276 277 278 279 282 284 284 286
360 357 343 327 321 323 328 334 337 339 344 352 360 367 376 390 394 383 372 365 355 350 343 338 334 331 329 329 329 333 335 330 331 349 349 346 344 342 340 337 334 330 323 318 314 314 307 304 305 302 300 300 301 297 293 294 294 293 294 293 290 287 287 287 287 287 285 285 285 284 285 286 285 285 283 279 277 275 276 277 277 278 279 278 277 276 275 273 271 271 271 271 271 271 271 272 272 272 272 273 276 277 276 277 277 278 278 278 280 282 283 281 283 284 286 288 289 289 289 293 296 298 297 295 294 292 289 286 285 284 280 279 278 275 273 274 274 275 274 282 278 274 271 270 269 268 270 272 273 271 271 271 274 276 274 272 271 271 267 265 265 265 263 261 260 260 261 263 264 265 266 269 271 271 272 276 279 279 279 286 287 286 287
341 338 329 321 319 323 327 334 337 339 343 347 353 362 376 386 383 371 359 354 350 347 341 337 333 331 329 329 329 329 329 331 341 351 349 345 343 341 340 337 333 328 323 319 315 311 305 305 304 301 302 301 302 299 295 292 292 292 294 293 293 288 289 289 289 289 288 288 287 286 286 286 286 286 282 278 276 277 278 279 281 281 280 278 277 275 274 273 271 271 271 271 271 271 271 271 272 272 273 275 277 277 278 278 278 279 280 280 279 280 282 282 283 286 289 290 294 292 289 291 294 296 295 295 296 294 289 286 286 284 280 280 277 275 274 276 276 276 276 280 276 275 272 271 271 270 271 273 272 272 271 272 275 278 276 274 273 271 269 267 265 265 263 261 261 260 260 263 267 267 268 270 272 272 272 275 279 282 281 287 289 290 292
323 322 319 318 320 324 327 335 338 340 342 344 349 362 379 383 376 365 354 349 345 343 339 336 333 331 330 329 329 331 339 347 352 354 350 345 343 342 340 338 334 331 328 326 322 316 305 305 305 305 305 302 299 298 295 294 292 293 292 293 294 290 289 289 289 289 290 291 289 287 286 286 286 285 282 278 277 280 281 281 281 280 279 277 275 274 274 273 272 272 272 271 271 271 271 272 272 272 273 276 277 278 278 279 280 280 280 280 280 281 283 284 285 288 289 290 292 292 289 290 294 296 294 295 296 294 291 287 286 285 283 281 278 275 276 277 275 278 276 278 275 276 273 271 272 272 271 271 273 276 275 274 275 276 275 273 271 270 268 267 266 264 262 262 261 260 264 268 270 270 270 272 273 273 274 278 280 281 282 288 290 291 293
318 317 316 318 321 324 327 333 336 339 343 346 349 357 372 378 370 359 351 346 341 339 337 335 332 331 329 329 333 343 354 357 356 354 351 349 346 344 341 338 335 333 331 329 325 316 304 304 304 304 305 301 298 298 296 295 294 295 293 292 292 290 291 291 290 290 292 291 290 289 287 287 287 283 281 279 278 279 281 281 280 280 280 278 276 275 274 274 272 272 272 271 273 273 274 274 274 274 276 278 278 278 278 278 278 280 281 281 282 283 285 287 288 288 290 289 291 291 290 290 295 298 295 293 293 292 290 288 286 283 282 281 279 276 275 275 277 279 276 275 275 277 275 274 273 275 274 272 273 278 278 277 276 276 274 272 269 268 266 265 265 263 262 262 260 261 266 268 270 270 270 273 275 276 277 279 281 282 284 287 289 291 293
314 313 315 319 321 325 327 333 340 351 364 368 364 364 369 372 365 355 349 347 341 339 336 335 333 332 330 329 333 350 360 361 360 355 353 351 349 346 342 338 336 335 331 328 319 310 303 302 302 302 302 298 296 296 295 295 294 297 294 294 292 292 293 293 293 292 292 293 293 292 290 289 288 282 280 279 280 281 282 283 281 280 279 277 275 273 272 271 271 271 271 272 274 276 276 275 275 276 277 279 279 279 279 278 279 281 282 283 285 285 288 291 289 288 288 288 290 291 293 294 296 297 294 292 292 293 288 287 286 285 284 282 282 279 276 277 277 277 278 275 275 275 275 275 273 275 274 272 274 277 278 278 277 275 274 271 268 268 266 265 263 264 263 261 260 262 265 267 269 270 270 273 276 278 280 281 282 285 287 287 288 289 291
312 312 313 316 320 322 325 333 346 365 387 400 397 385 377 371 362 354 351 349 343 340 338 335 332 331 329 329 331 344 356 360 362 355 353 350 347 344 342 339 336 335 331 324 315 308 303 302 302 302 301 300 298 299 299 299 296 295 294 294 296 294 295 294 295 295 294 294 294 293 292 291 289 284 282 282 283 283 284 284 282 281 280 276 274 274 271 271 271 271 272 274 276 278 277 276 276 278 280 282 282 281 281 280 280 283 285 284 284 287 290 292 292 290 290 290 290 291 294 297 298 295 292 292 292 292 287 286 284 283 282 281 280 281 280 279 277 277 277 276 277 275 278 276 274 272 272 273 275 277 277 276 276 274 273 271 269 268 267 265 263 263 262 260 261 264 265 265 268 270 270 272 274 277 279 280 282 285 286 287 289 290 290
312 312 313 314 317 319 322 332 343 361 389 415 426 417 397 377 362 354 350 348 343 340 338 336 334 333 330 329 330 337 345 355 360 357 354 351 348 345 341 340 338 334 328 318 312 307 303 303 302 302 301 302 301 300 300 301 300 298 297 299 296 296 297 297 299 298 296 294 293 292 292 292 290 286 284 283 283 283 284 285 283 281 278 275 274 272 272 272 272 273 273 275 277 278 279 277 276 278 281 284 284 282 283 283 283 284 285 284 286 288 288 290 291 291 291 290 292 292 294 296 297 293 295 295 292 290 286 284 283 283 282 282 282 282 280 280 280 278 281 275 275 278 278 275 276 274 273 274 275 276 277 276 275 271 271 271 270 267 265 264 264 265 265 264 265 266 267 268 269 273 273 272 272 274 279 281 283 285 286 289 290 290 290
309 310 310 312 315 318 321 333 344 361 383 403 414 414 403 381 362 355 352 349 342 340 338 336 334 331 330 330 331 333 336 343 354 359 355 351 349 345 337 329 325 321 318 314 313 310 308 308 308 309 310 307 304 305 303 302 302 302 303 303 300 300 302 305 307 307 304 301 298 296 294 293 292 288 287 286 284 284 285 285 285 285 282 278 276 274 274 276 276 277 278 277 276 277 278 279 278 278 281 285 290 290 288 286 287 287 287 287 287 290 290 290 291 292 293 293 296 295 297 298 295 294 294 293 291 290 291 291 286 283 284 283 283 283 281 281 283 282 280 275 275 276 276 276 276 277 279 277 275 275 276 277 277 273 272 269 267 265 264 264 265 265 264 265 266 265 270 270 271 272 274 275 274 277 282 284 284 284 285 290 291 292 293
307 308 309 311 313 315 319 340 351 358 372 388 395 393 385 372 360 354 351 347 343 341 339 336 335 334 332 330 327 329 331 334 341 355 354 352 349 342 334 326 321 316 313 313 313 314 313 313 314 313 313 310 306 307 304 304 303 304 306 306 302 304 305 307 309 309 308 303 299 297 296 298 297 290 290 289 287 285 285 286 284 283 281 278 276 274 277 278 278 279 280 279 279 279 280 279 278 279 281 284 289 291 292 290 288 288 287 287 288 290 291 291 291 295 296 295 297 295 297 298 296 294 293 292 291 291 290 288 286 285 287 287 286 283 281 281 283 283 280 275 275 277 276 276 276 277 277 276 279 279 276 277 277 272 272 271 268 265 264 264 264 264 264 265 266 267 269 271 273 273 273 274 276 279 285 286 285 285 286 287 290 293 293
308 308 309 310 311 314 317 340 350 355 362 371 375 371 364 359 357 355 350 347 342 341 339 337 336 336 333 330 326 326 326 328 331 339 341 343 340 334 328 322 319 316 314 315 318 321 319 318 318 317 314 310 310 311 309 307 304 306 308 308 307 309 307 308 308 309 307 303 299 296 295 295 294 290 291 291 289 286 284 286 284 282 280 277 274 274 276 279 280 280 281 282 281 281 281 280 280 279 279 282 285 287 289 289 288 289 290 290 291 292 294 293 294 298 297 295 296 297 298 298 296 296 295 294 294 293 288 287 288 287 286 285 286 284 281 281 281 284 280 277 277 280 277 276 278 277 279 279 279 277 276 276 276 272 271 269 266 265 264 264 264 264 265 266 268 271 271 272 275 275 276 276 277 279 284 286 287 287 286 286 287 291 291
310 310 309 310 311 313 316 332 339 345 348 352 354 352 349 349 352 354 351 347 344 342 340 339 337 335 332 329 325 324 322 324 325 327 329 330 329 326 323 320 319 318 318 322 327 330 324 324 324 321 316 314 313 315 314 312 308 309 310 311 311 311 308 307 306 306 302 299 297 296 294 291 290 287 288 289 288 285 283 283 281 279 278 275 274 274 277 279 281 281 283 284 284 284 282 281 280 279 280 282 283 284 287 289 291 290 290 291 293 295 296 295 294 298 296 298 300 302 303 299 296 295 294 293 293 292 288 288 289 288 286 285 285 286 282 284 283 283 281 282 279 281 279 277 279 278 280 279 278 277 276 275 275 272 270 268 267 266 265 264 264 266 269 270 270 273 273 271 274 278 281 281 280 281 285 287 288 288 287 285 285 287 287
313 311 310 310 311 313 315 324 331 336 338 339 340 339 340 344 351 357 355 350 345 343 341 340 338 334 331 329 326 322 321 320 322 323 324 324 323 323 322 321 320 320 324 330 332 333 329 328 327 324 319 318 317 317 317 315 313 314 313 312 310 308 307 305 302 300 298 296 294 294 292 290 289 285 284 283 283 284 283 281 279 278 277 274 274 275 278 280 282 283 283 284 285 286 285 282 280 280 281 282 283 284 286 288 291 291 291 291 293 295 296 297 296 298 298 300 300 302 302 300 299 297 295 293 293 291 289 289 291 289 288 286 285 284 282 285 286 285 282 281 279 280 279 278 279 279 279 279 278 277 275 274 274 272 270 268 267 265 265 264 266 268 270 271 270 274 275 275 277 280 282 282 281 283 286 288 289 288 285 283 284 284 283
315 313 312 312 312 313 314 320 325 329 331 333 334 335 339 348 362 374 373 361 345 342 340 339 336 332 331 328 324 320 321 318 319 319 320 320 321 322 322 323 323 326 332 336 335 334 331 330 328 326 323 321 319 317 316 314 314 316 315 312 307 307 305 302 298 296 295 293 292 292 291 290 289 284 283 281 281 282 282 281 279 277 276 276 277 278 278 279 281 282 283 284 286 287 287 285 283 281 282 282 283 285 287 288 291 292 294 294 295 296 297 299 299 299 300 301 302 303 304 304 300 298 297 295 294 293 290 289 291 290 290 289 286 283 284 284 284 284 282 282 280 281 279 280 279 278 278 278 277 277 276 275 274 271 268 267 265 264 264 265 268 269 270 271 270 273 279 279 280 280 280 280 282 284 287 288 288 287 284 282 284 283 280
318 315 315 315 313 313 315 319 323 326 328 330 332 336 343 356 374 389 390 377 350 344 340 337 334 332 331 327 324 320 319 318 316 315 316 319 321 322 323 325 329 332 337 339 338 335 332 329 326 325 323 320 316 315 313 311 312 312 314 311 305 305 304 302 297 293 293 293 292 291 290 290 289 283 281 280 280 280 279 280 278 276 276 277 277 277 278 279 280 282 284 285 286 288 288 288 287 284 282 282 284 286 288 289 291 293 295 297 298 297 298 301 301 301 302 304 305 306 305 304 301 300 297 295 295 294 291 289 291 291 291 290 287 288 287 284 283 284 282 281 280 281 280 280 278 277 277 277 276 276 276 276 274 268 266 265 264 265 267 269 271 270 271 271 271 274 280 280 280 280 280 282 283 285 287 288 287 284 282 279 280 280 280
322 319 318 318 317 317 317 320 322 325 328 330 334 338 344 354 367 378 384 388 365 350 343 339 335 332 331 329 326 321 318 316 315 313 314 316 317 320 321 324 328 333 338 339 338 336 332 329 327 326 321 316 313 311 311 308 309 307 310 307 302 302 302 301 296 293 293 293 292 291 289 289 287 282 280 280 280 280 278 278 278 276 276 277 277 277 280 280 280 282 285 286 287 289 291 291 289 287 285 282 285 287 287 288 291 293 295 297 298 299 301 303 303 304 304 306 307 308 307 304 301 300 297 295 295 294 292 290 291 292 290 288 288 290 287 284 284 282 282 279 280 281 281 279 277 278 277 276 275 276 276 274 272 266 265 265 265 266 269 271 271 271 272 273 275 275 279 281 280 281 283 284 285 286 287 286 284 282 280 278 278 280 280
324 322 322 323 321 320 319 321 323 325 328 332 336 340 344 349 355 363 374 390 384 363 348 341 335 332 331 328 326 322 318 315 315 313 312 313 314 316 317 318 321 327 335 338 338 336 332 331 330 327 317 312 309 309 309 306 306 304 304 303 300 298 298 299 296 293 292 292 291 289 288 287 285 282 281 281 281 281 280 279 278 276 276 277 277 278 282 281 282 283 285 287 288 290 292 292 291 290 287 285 286 287 287 288 290 293 295 296 297 299 303 305 306 308 308 309 309 309 307 304 301 301 298 297 297 296 292 292 291 291 291 291 289 288 285 284 284 280 279 277 279 280 281 280 278 277 276 276 275 276 275 273 271 266 265 265 266 268 270 271 271 271 273 275 277 277 280 281 280 283 285 285 285 286 285 285 284 281 278 278 278 279 279
325 324 324 326 327 325 322 321 324 327 329 332 336 341 344 348 352 360 372 391 403 377 355 343 337 334 332 328 326 323 320 317 315 313 312 312 312 312 312 313 315 320 328 335 337 336 332 332 330 324 313 308 307 307 306 304 304 302 301 301 298 296 295 295 294 293 291 290 290 289 287 286 284 283 282 282 282 283 281 279 278 277 277 277 277 279 282 282 283 284 286 288 289 291 293 293 293 292 290 288 287 288 288 288 290 292 294 295 296 300 304 305 307 310 313 313 311 309 307 304 302 301 300 299 299 297 294 295 294 292 292 295 291 287 284 282 282 279 277 278 277 278 279 280 278 277 275 275 275 276 274 272 270 266 265 266 268 270 270 272 272 273 274 276 278 278 281 281 282 284 286 286 285 285 284 283 282 280 277 277 277 277 277
326 326 327 329 329 328 326 323 324 327 329 332 336 341 344 347 353 363 376 396 417 394 365 348 341 336 332 329 327 323 320 319 317 313 312 312 312 312 312 312 313 317 322 331 335 334 330 329 325 317 309 305 304 305 304 302 301 301 300 300 297 296 293 292 291 290 289 288 287 287 286 285 284 284 283 282 283 283 281 280 278 277 278 278 279 280 282 282 284 286 287 288 289 292 294 295 295 294 293 290 289 289 289 289 290 292 294 295 296 299 302 304 307 314 316 315 312 309 308 306 303 302 301 300 299 298 297 297 296 295 293 295 293 287 283 280 281 277 278 279 277 276 278 278 277 276 274 274 274 273 271 270 270 267 265 267 270 271 272 273 274 275 276 278 279 279 282 283 284 286 287 288 287 286 284 282 280 278 275 276 276 276 276
328 331 335 336 334 333 332 328 326 327 329 331 335 340 345 348 354 364 378 397 421 403 373 352 343 337 333 330 328 324 322 320 317 313 312 312 312 312 312 312 312 313 316 323 326 325 327 323 316 309 304 301 302 303 301 300 299 300 299 298 295 294 292 289 287 287 288 287 286 286 285 284 284 284 282 281 282 281 280 279 278 277 278 279 280 282 283 284 284 285 286 287 289 292 294 296 297 297 296 294 290 290 290 291 291 293 295 296 298 300 301 305 309 315 317 314 312 311 308 306 304 302 301 300 299 298 301 299 296 295 294 293 291 286 282 280 279 277 278 278 278 276 277 277 276 274 272 273 274 271 270 270 271 267 267 269 272 273 275 276 276 277 278 279 280 281 282 285 287 288 289 290 290 288 285 282 279 277 275 274 275 275 275
332 338 344 347 347 347 345 335 330 329 329 331 335 341 349 354 356 363 375 392 416 406 381 358 345 339 335 331 329 325 323 321 317 313 312 312 312 312 312 312 312 312 312 312 312 311 316 314 310 304 301 299 300 300 299 296 297 298 296 295 292 290 290 287 286 286 286 286 286 286 285 284 283 283 282 280 280 280 279 278 278 277 277 279 281 283 284 285 285 285 286 287 290 293 295 298 299 298 298 297 292 291 291 291 291 293 295 296 299 301 302 306 310 316 316 313 311 311 309 305 303 302 300 299 299 300 304 299 294 293 293 292 289 284 282 278 277 276 277 275 276 276 276 277 277 274 271 271 272 270 271 270 270 268 269 271 273 274 277 278 277 279 279 279 281 284 283 286 288 289 291 291 290 288 285 282 280 277 275 274 273 273 273
338 343 352 360 364 367 365 343 337 334 332 332 335 345 360 373 372 368 374 388 419 425 407 377 355 345 340 335 331 326 323 323 320 314 312 312 312 312 312 312 312 312 312 312 312 312 302 300 300 299 298 297 297 295 295 294 294 293 291 291 291 291 290 290 290 290 289 288 287 287 285 283 282 280 280 280 279 279 278 277 277 278 277 277 280 284 285 286 286 287 288 289 290 292 295 297 298 299 301 303 300 299 297 294 292 294 296 298 299 302 305 307 310 314 313 311 311 309 306 304 301 299 299 299 300 299 299 296 293 291 292 290 288 284 281 278 277 277 276 274 273 273 274 273 272 271 271 270 269 269 269 269 269 269 269 271 273 274 277 278 280 281 282 283 285 288 287 287 288 290 290 290 290 289 286 284 283 281 279 274 274 272 271
342 347 354 361 366 369 367 347 343 340 336 334 336 345 361 377 381 376 379 397 438 442 422 388 363 349 343 337 332 326 324 322 320 316 313 312 312 312 312 312 312 312 314 320 325 325 304 303 302 302 300 298 296 295 295 294 294 294 294 293 293 293 292 291 292 292 291 289 287 287 285 284 284 280 279 279 279 279 278 277 278 279 279 280 281 284 286 286 288 288 289 289 290 291 293 295 297 299 301 304 305 303 300 296 294 294 296 298 298 302 305 306 309 311 311 310 310 308 305 302 300 299 298 297 298 298 297 294 292 291 291 290 288 284 281 280 280 281 279 275 274 273 273 270 270 270 270 269 269 269 270 270 270 270 270 271 274 276 278 279 280 282 284 286 287 287 288 288 289 291 292 291 289 288 286 284 282 281 279 275 274 272 270
347 351 356 361 366 370 370 359 356 351 343 337 339 347 362 380 388 388 391 408 454 454 432 400 372 354 345 338 332 328 325 321 320 317 315 314 312 312 312 312 313 318 326 331 334 332 309 311 312 311 307 303 299 298 299 298 298 299 299 296 296 295 293 293 293 294 294 291 288 287 286 286 285 279 279 279 279 279 277 277 278 280 282 284 284 285 286 286 288 288 290 291 292 292 293 294 296 298 301 304 307 304 301 298 295 294 296 298 299 303 304 305 308 310 310 308 307 306 303 301 299 298 298 297 297 297 295 294 292 291 290 289 287 285 283 282 282 283 281 276 276 276 272 270 270 269 269 269 269 269 270 271 271 271 271 271 273 276 278 279 281 282 285 286 287 287 288 289 290 292 293 291 288 287 285 283 281 279 278 275 274 271 271
350 352 356 361 366 371 374 372 368 360 348 341 343 352 366 382 395 402 406 421 461 460 441 415 386 362 348 338 333 330 327 323 322 318 315 314 312 312 312 313 320 329 337 339 337 333 319 323 325 323 320 312 307 305 306 304 304 304 304 300 298 297 295 294 295 297 296 293 289 288 287 287 285 280 279 279 279 278 277 277 279 281 283 285 286 286 286 287 288 290 292 293 294 294 295 296 297 298 300 303 305 304 301 298 296 295 297 299 301 304 304 304 306 310 309 307 305 304 302 299 299 298 297 297 297 296 293 293 292 291 290 289 285 285 285 283 282 283 284 280 281 280 274 271 271 271 270 270 270 270 272 273 273 274 272 272 273 275 276 278 280 283 285 286 287 288 289 290 291 292 292 289 288 287 285 283 281 279 277 274 272 272 272
349 354 358 362 368 372 374 374 367 356 347 343 347 356 369 384 401 415 421 432 465 465 453 430 399 370 351 339 334 331 329 325 323 319 315 314 313 312 313 318 328 339 344 343 339 335 330 331 332 329 328 322 317 315 314 314 312 311 310 305 301 300 298 297 297 298 296 292 289 288 286 286 284 281 279 279 278 277 277 279 281 282 283 286 287 286 287 287 290 291 293 294 295 295 295 296 297 299 301 303 304 303 301 298 297 297 301 302 302 305 305 306 307 308 308 306 304 303 301 298 298 297 296 296 295 294 292 292 292 291 289 288 285 285 285 283 281 284 285 283 283 282 277 273 272 273 272 271 271 272 274 274 275 276 274 273 274 274 275 277 279 281 284 286 287 288 291 292 291 290 288 286 286 286 283 281 280 278 277 274 272 273 273
347 355 361 365 369 372 374 371 360 350 346 345 350 359 372 387 405 420 428 438 467 470 458 433 402 373 354 342 336 334 330 328 325 320 317 315 315 315 317 323 334 346 347 344 341 339 335 335 334 332 330 326 324 322 320 319 316 316 313 308 305 304 303 301 300 298 295 291 289 288 287 285 283 280 278 279 278 277 278 280 282 283 283 285 287 287 288 289 291 293 293 295 297 297 297 297 298 301 303 304 305 303 301 299 300 304 307 306 305 307 307 309 308 308 306 306 304 302 300 298 297 296 295 295 293 293 292 292 291 290 288 287 286 285 284 284 281 283 281 281 279 280 276 272 273 274 273 272 273 274 275 275 275 275 275 275 275 276 276 277 279 281 283 285 287 289 292 292 290 288 285 284 283 283 281 280 280 279 278 275 274 274 273
344 351 357 363 368 372 375 374 365 355 349 349 353 363 376 391 405 415 422 434 465 466 451 426 400 374 358 347 341 337 333 329 326 320 319 319 319 320 322 328 340 349 347 344 342 342 337 337 336 333 332 329 326 324 322 320 317 317 314 310 308 306 306 305 302 298 295 292 289 287 286 284 282 279 278 278 278 278 279 282 283 284 284 286 287 287 289 291 292 293 294 296 298 300 300 300 300 301 304 306 307 305 302 302 305 310 314 311 310 309 310 311 308 307 305 306 305 302 300 298 297 296 295 294 291 291 292 292 290 288 286 285 284 284 284 283 281 281 280 278 276 276 273 272 272 273 272 273 273 274 277 277 276 277 278 277 276 277 278 278 280 283 285 287 290 290 292 291 289 287 285 284 283 283 282 281 280 278 278 276 275 274 273
341 344 348 355 365 373 376 381 378 369 358 354 357 366 379 391 398 403 410 426 463 464 450 428 404 377 360 351 345 339 334 330 327 321 321 323 325 327 331 337 345 350 348 345 343 343 339 339 336 333 333 330 326 324 321 319 317 316 313 310 307 305 304 304 300 296 294 292 290 288 286 284 281 278 278 278 278 279 280 282 284 285 285 286 286 287 289 290 292 293 295 296 298 300 302 302 301 302 306 309 309 308 305 305 308 313 317 315 313 311 312 312 309 306 306 305 303 301 299 298 298 296 295 292 290 290 290 290 287 286 284 283 281 282 283 280 279 280 281 276 276 275 272 272 272 272 272 273 273 275 277 278 278 280 279 277 277 277 278 280 282 286 288 289 291 292 293 291 290 288 286 284 283 283 283 284 282 279 277 276 274 274 274
339 341 344 351 362 371 375 384 385 381 370 361 362 371 380 388 394 400 410 429 468 471 461 438 410 381 362 351 345 340 335 331 327 322 324 329 335 340 344 349 351 351 350 347 344 343 340 337 335 332 332 330 326 323 322 319 316 313 313 310 303 301 300 301 298 296 295 292 291 289 287 285 282 278 278 278 279 279 279 281 284 285 285 285 286 288 289 290 292 295 297 298 298 301 303 304 303 305 309 314 314 312 310 310 312 315 318 317 315 312 312 311 309 306 306 305 302 300 298 297 296 295 293 291 289 288 287 286 284 284 283 281 280 281 282 280 279 279 278 276 277 275 272 272 272 273 272 273 274 276 278 278 280 280 279 277 277 278 280 283 286 292 293 292 293 295 294 293 292 291 290 287 285 284 285 285 284 280 278 275 275 275 275
337 342 346 352 360 369 374 384 385 382 371 363 367 379 390 399 406 412 421 440 468 466 455 432 407 384 364 350 343 339 335 331 328 324 326 333 346 356 357 356 354 352 351 348 344 341 339 335 335 333 332 329 325 323 321 318 314 312 311 308 303 300 298 298 296 294 293 292 289 287 285 284 282 278 278 279 280 281 280 281 284 285 285 286 286 288 290 291 293 295 297 298 299 301 302 305 306 307 312 317 317 314 313 314 316 317 318 317 317 314 312 312 310 306 306 304 301 299 297 296 296 294 292 291 288 286 284 283 282 281 282 280 279 279 280 279 281 280 275 276 276 273 272 272 274 274 273 273 275 276 277 278 279 279 278 278 279 281 284 286 289 294 295 293 295 297 296 295 294 293 293 291 287 286 286 286 284 281 279 278 278 277 276
339 344 348 353 358 364 372 383 381 372 361 358 367 383 402 419 429 432 437 450 452 441 429 411 393 381 366 351 342 337 334 331 329 324 324 330 343 356 358 356 353 351 350 349 346 342 338 335 335 332 330 328 325 321 318 314 312 312 307 303 301 298 295 296 294 292 291 290 287 285 283 283 282 278 278 279 281 281 281 282 285 285 286 287 288 289 290 291 293 295 297 299 300 300 302 306 308 309 312 316 316 314 315 316 317 317 317 316 315 315 313 312 312 307 306 304 302 300 298 297 296 294 292 291 288 286 283 282 282 281 281 279 277 277 277 277 279 281 277 275 274 272 272 273 274 273 273 273 275 276 277 279 280 278 280 283 284 285 286 289 293 295 295 295 296 297 298 298 296 294 294 291 289 289 287 285 284 281 280 279 279 277 274
340 345 348 352 355 359 367 379 373 363 354 356 366 383 405 425 437 445 453 462 440 416 401 388 375 368 363 353 343 337 334 331 329 323 321 325 333 342 347 348 347 346 346 346 345 342 338 336 335 331 329 326 319 315 312 309 308 311 307 301 299 296 293 293 292 290 288 286 284 284 283 283 281 278 278 279 281 282 282 284 284 284 286 287 288 290 290 291 293 295 297 298 299 300 302 305 308 308 309 312 315 313 313 314 315 315 315 316 317 317 315 313 311 308 307 305 302 299 297 297 296 294 292 291 289 286 285 284 282 281 280 279 280 278 276 275 276 277 277 274 273 272 272 274 273 273 273 274 274 275 277 280 280 278 281 284 286 287 288 291 293 295 296 297 298 298 298 300 298 295 294 292 291 290 287 285 285 284 281 279 277 275 273
338 343 346 348 349 351 358 364 358 353 352 357 365 376 393 412 429 446 463 476 448 420 399 384 369 360 354 349 343 337 334 332 329 324 320 320 323 325 327 330 332 333 334 338 341 341 337 335 334 331 327 322 314 310 309 305 305 308 306 301 298 295 292 291 289 289 288 285 285 286 286 284 282 279 279 280 281 282 282 284 285 285 287 288 289 289 291 294 294 293 294 296 298 299 301 304 305 305 306 309 313 312 311 311 312 314 315 317 318 316 314 314 311 308 307 305 301 301 298 297 296 294 292 291 289 287 287 284 282 282 280 280 281 279 276 275 275 275 275 273 272 272 272 274 273 274 276 276 275 275 276 279 281 280 281 284 287 289 290 292 294 296 297 298 300 300 301 300 298 296 294 293 293 291 287 285 284 284 283 279 277 275 273
332 333 335 336 338 338 338 340 342 346 354 368 387 403 409 413 429 455 480 494 487 463 435 405 375 357 350 345 341 338 335 332 328 323 322 320 317 315 314 314 315 315 317 320 327 335 335 332 331 329 326 315 308 308 304 304 301 301 299 296 294 292 291 290 290 289 288 286 287 286 285 284 282 280 279 279 280 285 287 286 286 287 288 287 288 288 290 291 292 292 292 293 294 296 298 300 302 305 307 309 306 306 307 309 309 311 313 315 314 314 313 311 309 305 304 304 304 302 299 295 293 293 291 289 289 290 289 289 289 289 286 283 281 282 278 277 278 275 275 277 276 275 276 278 276 275 276 277 277 277 276 279 281 282 284 286 286 288 292 296 298 296 298 301 304 304 306 305 304 302 299 298 295 291 288 288 286 285 285 281 280 280 279
334 337 341 346 348 349 345 339 340 345 357 373 395 418 429 430 438 456 473 482 489 470 439 404 376 357 348 343 339 336 334 330 327 323 321 319 315 315 314 313 312 311 313 316 322 332 332 331 328 326 324 314 308 306 302 301 299 300 299 296 294 292 291 292 291 289 288 287 286 285 284 283 283 281 279 280 281 283 285 285 286 287 288 288 288 287 290 293 293 292 293 295 297 297 296 297 298 300 304 306 304 304 305 307 308 309 312 311 311 310 309 310 307 304 302 303 300 297 295 293 292 292 291 290 292 293 291 291 288 287 287 283 281 278 277 277 275 276 275 275 275 275 277 278 276 275 277 278 278 279 278 280 281 283 284 284 287 290 292 293 294 296 300 302 303 305 304 303 303 302 301 300 295 291 289 288 287 286 287 283 281 281 281
340 345 349 353 357 359 355 339 342 349 358 370 385 406 427 445 459 469 472 468 464 447 423 396 374 361 351 345 340 335 332 330 326 323 320 318 317 316 313 308 307 307 308 311 315 323 328 322 319 320 323 317 307 303 301 300 299 299 301 298 295 293 292 291 288 287 287 288 287 285 283 284 284 282 280 281 282 283 283 283 283 285 287 287 286 286 289 293 293 292 294 296 297 297 297 297 298 300 303 304 302 303 305 307 308 308 310 310 311 310 309 309 308 304 303 302 300 298 296 295 295 294 294 292 292 295 293 290 287 287 284 283 282 279 278 283 279 277 275 275 275 275 277 276 276 277 279 278 278 278 278 280 281 283 284 285 287 289 291 292 294 296 300 303 306 307 305 305 304 302 301 300 296 291 289 288 287 287 285 282 282 283 282
346 351 355 360 365 366 359 342 345 353 363 375 388 404 422 441 460 476 474 459 435 418 399 381 367 359 353 346 340 336 332 330 327 324 322 320 317 316 314 310 306 305 304 304 305 308 316 310 309 310 314 313 306 304 299 299 299 299 301 300 296 293 291 288 289 290 289 287 286 285 287 286 285 283 282 280 282 283 284 283 284 285 285 285 286 288 288 290 292 294 294 294 294 296 298 298 298 299 300 302 302 301 302 305 306 308 307 307 310 310 309 308 306 304 302 300 300 300 301 300 297 295 293 292 294 297 294 291 291 288 286 285 284 282 282 279 276 275 275 275 278 277 279 277 277 280 280 279 279 281 279 280 281 281 282 283 285 287 289 294 295 296 298 301 304 305 305 302 301 301 300 300 296 294 294 291 288 287 286 286 286 285 283
352 358 361 366 369 368 356 343 346 354 366 379 390 401 415 429 442 451 455 449 411 390 377 367 358 353 351 346 341 339 338 332 328 327 324 319 316 315 315 312 310 307 304 303 303 302 302 301 302 303 305 303 301 300 299 299 303 302 303 302 297 293 289 289 290 291 291 289 287 285 286 285 284 282 282 282 283 284 285 285 287 287 287 286 287 289 290 291 291 292 292 292 293 295 296 297 297 298 300 301 301 301 302 303 304 305 306 306 306 308 309 307 302 300 300 301 303 304 303 299 296 294 296 296 296 298 295 292 291 289 287 285 288 284 280 276 278 275 275 276 276 279 280 280 277 278 279 279 279 280 280 281 282 282 282 283 286 289 290 292 293 292 294 299 302 304 303 299 300 300 298 297 295 295 294 290 289 288 288 285 284 282 281
357 360 364 368 369 363 351 345 348 354 363 374 386 394 400 409 418 423 427 429 397 378 366 360 354 352 349 346 345 348 344 332 327 325 323 318 315 316 316 312 309 308 305 303 302 301 299 298 299 299 300 297 298 298 299 301 305 306 305 303 298 294 289 289 289 289 290 288 286 285 285 286 285 282 282 282 282 282 284 285 285 286 286 287 289 290 291 292 295 294 292 293 294 294 295 297 298 299 300 301 301 302 301 301 302 304 304 304 306 308 307 305 301 302 303 305 306 305 302 299 297 297 298 299 298 297 295 291 287 285 285 284 286 281 278 276 275 275 278 280 279 278 281 282 281 279 279 279 279 281 281 280 282 282 283 284 286 287 289 291 292 294 295 296 300 300 298 295 296 295 296 296 296 295 293 290 288 286 286 282 282 281 279
358 363 366 369 370 362 352 349 352 355 361 369 378 383 386 391 398 406 414 412 384 374 367 365 365 362 356 353 352 351 342 331 328 324 321 317 315 315 315 312 308 305 304 302 302 302 300 299 298 298 298 295 294 295 296 298 302 307 306 303 298 294 291 289 289 290 289 288 287 286 287 289 287 283 282 282 282 282 284 284 285 287 288 288 289 290 292 292 294 294 294 295 296 296 297 298 299 299 300 301 302 301 301 301 302 303 305 304 305 307 307 307 307 306 306 307 306 305 303 301 298 297 297 299 300 299 297 294 290 288 286 285 284 281 280 279 276 277 280 281 281 280 280 282 284 282 281 280 281 281 281 282 283 282 282 283 285 288 292 295 295 296 298 300 301 302 297 295 293 295 293 293 292 291 291 289 286 285 285 283 282 282 281
358 363 366 368 370 365 355 356 357 357 359 364 371 379 386 390 395 404 414 413 408 401 391 393 392 379 368 367 367 355 340 331 325 322 320 318 317 316 314 309 305 304 305 305 308 309 307 305 302 300 297 296 296 294 294 295 297 302 304 301 299 297 293 289 288 289 290 289 287 285 284 286 286 282 282 282 282 284 285 285 285 286 288 289 288 290 294 292 294 295 296 298 298 298 298 299 300 301 302 302 302 302 302 302 302 303 304 304 304 305 307 308 308 308 308 309 308 306 304 302 301 300 301 302 301 301 297 295 292 293 289 288 286 285 284 279 278 279 278 280 280 283 285 287 288 285 282 281 283 284 285 286 284 284 284 285 287 290 292 295 298 300 301 301 303 309 300 297 295 292 290 292 293 292 290 288 286 285 285 282 280 281 280
355 358 362 366 367 361 355 360 361 363 366 369 372 381 391 400 406 413 424 435 441 431 419 415 407 390 384 391 388 368 342 329 323 321 321 318 316 315 311 308 306 306 305 307 318 327 318 312 305 303 300 298 297 296 294 295 294 296 296 298 298 297 294 289 288 288 289 288 286 285 284 284 284 283 282 282 283 284 286 288 287 289 290 291 292 293 293 294 296 298 299 298 298 299 299 299 300 302 303 303 304 304 304 304 303 304 305 305 305 306 305 305 306 308 310 311 312 313 307 304 302 302 303 304 303 301 299 296 293 293 291 289 285 283 282 280 279 278 278 281 281 283 286 285 285 284 283 282 283 283 285 287 287 288 288 289 289 288 289 293 297 301 305 306 308 313 300 296 293 291 290 292 293 291 288 287 285 284 283 280 279 278 279
350 352 357 362 363 358 355 362 364 367 371 373 375 381 391 404 419 432 443 452 449 434 425 416 406 397 401 404 398 373 349 332 326 323 322 319 317 314 310 308 308 307 306 310 326 334 328 320 310 303 302 299 298 297 294 294 293 292 292 294 296 295 293 290 288 288 288 286 285 285 284 284 284 282 282 282 282 284 286 287 288 288 292 295 296 296 296 298 298 300 302 300 299 299 300 300 300 302 304 305 305 305 305 305 304 304 305 306 305 305 305 307 307 309 311 314 318 318 313 308 304 304 305 305 304 302 296 295 293 292 292 289 285 283 281 279 280 279 279 283 283 284 285 286 284 285 285 285 285 285 286 288 289 290 290 290 290 290 291 293 295 300 306 310 311 310 301 297 293 291 290 289 288 287 287 286 286 285 283 279 279 279 278
346 349 356 362 364 361 357 361 365 369 372 377 381 387 398 414 431 443 450 453 435 416 408 399 390 388 390 389 382 370 352 339 331 324 321 320 317 315 313 310 309 308 307 311 325 334 329 325 315 307 303 302 303 300 296 294 293 293 291 291 291 292 291 289 288 288 288 287 286 285 284 284 283 282 282 282 282 283 285 288 290 290 293 296 297 299 300 299 299 301 302 301 300 301 301 301 301 302 304 304 306 306 305 305 305 306 307 308 306 306 307 309 309 310 312 316 320 319 315 310 308 307 306 307 305 302 297 296 293 291 291 289 287 284 283 280 279 279 279 282 286 286 286 289 286 287 287 285 285 285 286 287 289 289 291 292 292 292 293 294 295 298 302 307 308 305 299 296 293 292 290 287 287 287 287 287 286 283 282 281 281 281 279
349 354 360 365 367 365 360 362 366 371 375 382 390 397 408 420 428 433 439 441 412 395 392 386 375 371 370 367 366 368 360 349 338 326 322 321 318 317 315 313 310 308 307 310 323 334 332 327 319 311 308 307 309 305 301 298 295 294 293 290 290 290 290 289 289 289 288 288 287 285 284 283 283 283 282 284 284 284 285 288 289 290 294 298 299 302 303 301 300 302 304 303 302 302 302 303 304 304 305 306 307 307 306 306 307 307 306 308 309 310 310 310 310 311 314 316 317 317 315 312 311 311 309 307 305 301 299 298 294 291 291 288 286 286 283 280 279 279 281 283 286 285 285 289 288 286 285 285 286 286 285 285 287 290 293 295 295 294 294 294 294 297 300 304 305 303 296 294 292 291 289 286 286 286 286 285 283 282 282 281 282 282 280
353 357 362 367 369 368 364 363 366 371 378 388 397 400 406 412 414 418 424 424 397 382 381 378 368 361 357 355 356 361 362 356 347 330 324 322 320 318 316 314 311 309 309 311 321 333 334 329 323 316 313 311 310 306 303 299 296 297 295 291 291 291 291 290 290 291 290 289 288 286 284 283 283 283 284 285 285 285 286 289 290 291 296 300 301 303 306 303 302 302 304 305 305 304 304 304 305 306 308 309 309 308 307 307 308 309 308 309 311 311 312 311 311 313 316 315 315 316 315 315 315 315 313 309 306 303 299 297 294 291 292 291 288 288 286 282 280 280 281 283 284 284 285 289 288 287 286 286 287 286 286 286 289 292 293 293 294 294 295 295 295 298 300 302 305 307 299 297 294 292 291 288 286 286 286 284 282 281 280 280 281 282 282
355 358 363 366 368 366 363 362 366 372 380 388 392 392 394 398 403 411 418 417 387 377 375 372 365 358 352 349 349 349 352 351 345 333 327 323 322 320 318 315 311 310 310 313 323 334 333 330 326 319 315 313 309 304 301 300 297 298 296 292 292 292 293 292 291 291 291 290 289 287 284 283 283 283 284 287 288 288 289 291 292 293 298 301 303 305 307 306 304 303 304 305 306 305 305 306 308 310 311 311 310 311 310 310 310 311 311 311 312 311 313 313 312 313 314 316 315 315 316 318 318 318 315 310 307 305 300 296 294 293 293 292 289 288 288 284 281 281 284 284 283 285 287 288 288 288 288 288 289 288 289 290 292 293 294 294 295 296 297 297 296 297 299 301 305 310 303 299 296 294 292 290 288 287 286 284 283 281 280 280 280 281 281
359 361 364 367 366 360 357 358 360 365 370 374 376 382 391 397 402 409 416 419 388 376 373 367 360 354 351 347 343 341 338 336 333 330 328 325 324 322 319 316 315 313 315 322 334 341 334 332 328 325 320 313 308 305 303 302 301 299 298 296 295 293 294 293 292 292 291 290 287 286 285 284 284 285 285 289 291 290 291 292 293 294 298 303 308 313 315 315 313 308 308 308 308 308 308 310 313 317 319 319 314 313 313 313 313 313 313 313 314 314 313 312 313 314 314 314 316 317 318 320 319 314 309 307 306 305 299 297 296 296 292 291 291 288 287 283 282 283 283 287 285 287 288 289 290 290 291 292 291 292 293 295 296 296 297 297 297 297 298 298 298 299 299 300 303 306 302 298 295 294 293 291 290 288 286 286 284 282 282 279 279 279 279
359 361 363 366 365 360 354 356 358 361 364 368 373 383 391 391 389 393 401 405 379 369 366 364 358 353 349 347 344 341 339 336 332 329 327 325 323 321 318 316 315 315 317 326 337 341 335 332 328 326 321 314 310 308 307 306 304 303 302 298 295 292 292 292 291 290 289 289 288 286 285 284 284 287 288 291 292 292 292 293 294 295 299 304 311 318 320 318 315 312 311 310 310 310 311 314 316 319 322 321 315 314 316 317 316 316 315 315 316 316 315 313 313 315 314 315 316 317 318 319 316 311 307 305 305 305 299 297 297 296 293 291 290 288 287 283 282 283 283 286 287 288 287 289 290 291 291 291 291 292 293 296 298 298 299 298 298 299 300 300 301 301 300 301 305 307 306 301 297 296 295 292 290 288 289 289 286 283 282 279 279 279 280
357 359 361 364 365 361 354 353 355 358 361 364 369 376 380 379 376 379 385 386 368 361 358 357 353 349 346 345 343 342 339 336 333 329 327 325 322 319 318 316 315 316 319 327 337 339 335 332 328 326 322 317 315 313 312 309 309 307 306 301 295 293 293 292 291 289 288 287 288 287 285 284 284 289 290 292 293 293 294 294 295 297 301 308 315 320 321 318 314 313 312 311 311 313 315 318 320 321 322 322 316 315 318 320 320 319 317 316 316 317 317 315 314 315 315 315 316 316 317 317 314 310 307 305 304 304 299 298 297 295 293 291 291 288 287 283 282 284 283 285 286 286 286 289 291 291 292 293 294 294 295 297 300 301 300 300 302 304 303 303 303 302 302 302 305 308 306 302 301 299 296 295 292 290 293 294 289 285 282 280 280 280 279
355 358 360 363 364 359 353 351 353 356 358 360 362 365 367 367 367 370 374 372 361 357 354 351 348 346 345 342 341 341 339 335 332 330 327 323 320 317 317 317 317 319 322 326 334 338 334 331 329 326 324 322 319 317 316 313 312 311 309 303 296 294 294 292 291 289 286 285 285 285 284 285 285 289 291 293 294 295 296 296 296 299 306 312 318 320 318 316 315 314 314 313 314 316 318 321 323 323 324 323 317 316 318 321 322 320 317 317 317 317 318 317 316 316 316 317 317 317 317 317 314 311 308 305 304 303 300 299 296 295 293 291 290 288 287 285 285 286 285 285 285 286 286 289 290 291 293 294 297 297 298 300 302 303 301 301 304 306 306 306 304 304 304 304 305 307 305 303 302 300 298 297 294 293 295 296 292 288 283 279 279 279 278
353 357 359 361 362 357 352 350 352 354 355 356 356 356 358 360 362 364 367 367 358 355 352 349 346 344 343 341 339 338 338 333 330 331 328 323 319 317 317 319 322 327 330 330 333 336 334 331 329 326 326 325 322 320 319 317 314 312 308 303 297 295 294 293 291 288 285 284 284 284 285 286 286 289 291 293 295 295 297 298 299 302 309 315 317 316 315 316 317 317 316 316 317 318 319 320 322 324 325 323 318 317 317 321 323 321 320 320 320 320 320 319 317 317 318 319 320 319 317 316 314 312 308 306 304 302 302 300 296 293 292 291 289 287 288 287 287 286 285 286 286 286 286 287 288 291 293 294 296 298 299 301 303 303 302 302 304 307 308 307 305 305 306 306 307 306 304 303 302 300 299 298 296 295 295 294 292 288 284 280 279 279 278
349 354 356 359 360 357 352 350 351 352 352 352 353 353 354 356 358 360 365 369 359 353 350 348 346 343 341 339 336 334 336 332 330 331 328 324 319 318 320 323 328 333 336 335 334 334 330 329 328 326 328 327 324 321 320 319 315 310 306 302 297 295 293 293 291 288 286 284 284 285 287 288 288 290 292 294 295 295 297 299 301 303 308 313 314 313 315 317 319 319 319 319 320 319 319 319 321 324 326 323 320 318 318 321 323 323 324 324 324 324 325 323 320 319 319 320 321 320 318 318 316 312 309 307 306 303 301 300 296 293 293 291 288 287 288 289 287 285 285 286 287 287 287 287 288 290 292 293 294 296 299 301 302 301 302 303 304 307 309 309 307 308 309 309 309 306 304 303 301 300 299 297 295 295 295 294 291 287 285 280 278 278 278
343 351 355 358 359 357 352 348 349 350 350 350 350 351 352 354 355 359 367 376 368 357 349 347 347 345 341 336 333 332 332 331 330 328 327 323 321 322 325 330 334 337 340 339 336 334 328 325 325 325 326 328 324 321 319 318 315 311 307 304 298 295 293 292 291 288 286 285 285 287 289 290 291 292 294 296 297 296 297 300 303 304 307 312 313 314 317 320 322 323 323 323 322 321 319 320 322 326 327 325 322 321 320 322 323 323 325 328 329 331 331 328 323 321 320 321 322 322 321 321 317 313 310 308 306 304 299 298 295 293 292 291 288 288 290 289 287 286 286 287 288 289 289 289 291 291 292 292 293 295 299 300 299 300 302 302 303 307 310 311 311 311 311 309 307 306 302 301 300 298 298 295 293 294 294 292 290 288 285 279 278 278 278
340 347 352 355 357 356 354 348 347 348 348 348 348 349 351 352 356 363 375 386 380 366 354 350 351 351 345 338 334 332 330 329 328 326 326 324 324 326 332 339 341 342 342 340 337 336 328 324 322 321 324 325 322 320 317 317 315 312 308 305 299 294 292 291 291 288 285 285 286 288 290 292 294 295 297 297 297 296 299 302 306 307 309 313 314 317 321 324 326 326 326 327 326 323 322 322 324 327 328 326 323 321 321 323 325 324 327 331 333 335 336 333 329 326 324 324 325 324 324 323 317 313 311 308 305 303 299 296 295 294 293 291 288 288 291 289 287 287 288 288 289 291 292 291 291 292 294 293 294 296 298 297 297 299 301 302 303 306 309 312 312 311 311 308 306 304 300 298 298 297 296 295 293 292 292 291 289 288 286 280 279 279 280
340 345 349 353 356 357 356 347 345 345 346 346 346 347 350 353 360 371 385 397 388 373 361 355 354 354 349 341 337 334 333 331 329 328 326 326 326 328 334 342 344 344 341 338 337 335 327 325 321 317 318 318 316 316 313 312 313 309 308 307 299 294 291 290 289 288 285 285 287 289 291 292 295 298 299 298 298 298 302 306 309 309 311 314 317 322 325 327 328 329 329 330 330 328 326 325 325 327 329 328 322 321 322 325 327 326 330 336 335 337 339 337 334 331 330 329 328 326 324 322 317 313 309 306 304 302 299 297 296 295 293 290 289 289 290 289 288 288 288 290 291 293 293 292 291 293 294 294 294 295 296 296 295 297 299 301 301 304 308 310 310 309 309 308 306 303 299 298 296 295 296 295 292 292 291 289 287 286 284 282 281 280 280
340 343 347 353 357 357 354 345 343 342 342 343 345 347 348 353 362 373 388 401 393 378 366 358 356 353 349 344 339 336 336 333 331 329 328 327 327 328 333 341 345 344 340 337 336 332 324 322 318 312 312 311 310 309 307 307 308 305 306 305 298 294 291 289 289 288 285 286 288 290 291 292 294 298 299 299 301 301 305 310 312 312 313 315 320 324 327 329 330 331 332 332 332 330 328 326 325 327 329 329 324 323 323 327 329 328 332 337 337 338 339 339 335 334 334 333 332 328 324 319 317 313 308 305 304 302 299 298 297 296 293 291 290 290 289 288 289 289 289 292 293 295 293 292 292 293 295 297 298 296 295 295 295 295 297 299 299 302 305 308 308 307 307 305 304 302 298 298 296 295 294 293 291 290 288 286 286 285 283 282 282 282 281
340 342 347 352 356 355 350 343 341 340 340 341 343 345 347 351 358 368 380 392 392 380 368 359 356 353 351 346 340 337 335 333 333 331 330 330 331 331 334 341 345 343 339 336 334 329 319 317 313 309 309 308 307 306 305 306 305 302 302 299 297 294 291 289 288 287 286 286 289 290 291 292 293 298 299 300 302 303 306 310 313 315 316 319 322 323 326 329 330 331 332 333 332 330 327 326 326 329 330 330 327 325 326 329 332 332 333 335 334 334 335 335 332 331 332 333 333 330 323 319 316 312 309 305 304 303 299 298 297 295 293 291 291 290 290 289 291 289 290 295 297 296 294 293 293 295 297 300 301 297 295 295 295 297 297 298 300 303 304 306 308 308 306 304 302 300 298 297 295 294 292 291 289 289 287 285 284 284 283 282 282 283 283
342 345 348 352 354 353 349 342 340 339 339 340 341 342 344 347 352 358 367 377 382 374 364 357 354 354 353 348 341 337 335 334 334 333 333 334 336 337 336 341 342 340 338 335 331 324 315 314 311 308 308 307 305 305 304 304 303 301 298 296 295 293 291 290 289 287 286 286 289 291 292 292 292 298 300 301 303 305 307 310 313 315 317 320 322 322 327 329 330 331 332 332 330 328 326 326 327 329 331 330 328 328 329 332 336 335 335 336 333 329 329 329 328 327 327 329 331 328 322 317 314 311 308 306 305 303 298 297 296 294 293 291 291 290 290 290 291 289 291 298 299 298 297 295 294 296 297 300 300 297 296 297 297 298 297 298 300 303 303 303 306 308 307 304 302 300 299 296 293 292 291 289 288 288 286 284 283 283 283 283 282 283 284
344 347 350 351 353 353 349 342 340 338 339 340 340 341 343 344 346 350 358 367 369 363 356 353 352 356 357 352 345 340 338 338 336 337 335 335 337 340 339 339 337 336 334 330 325 318 313 312 310 308 307 305 304 304 304 302 300 299 297 296 293 292 291 292 290 287 286 286 289 291 292 292 293 297 299 300 302 305 307 310 312 314 317 319 320 322 326 328 329 330 331 331 329 327 326 326 327 328 329 329 329 331 332 334 336 337 341 344 339 328 324 323 324 324 325 324 325 322 318 314 311 310 307 306 304 302 298 297 296 295 294 292 291 291 290 291 292 291 293 297 300 301 300 299 297 297 298 301 300 298 298 300 300 300 299 299 301 303 304 305 306 307 306 303 302 301 298 294 291 290 290 289 288 286 285 284 283 283 283 283 283 283 285
343 344 347 348 349 349 347 341 339 336 336 336 337 340 341 341 341 343 346 350 350 348 347 347 347 350 352 356 358 359 355 350 345 347 344 342 342 344 343 340 337 332 327 323 320 316 311 309 308 308 307 305 305 304 301 298 298 298 296 297 294 292 292 290 288 286 286 287 288 290 292 293 294 295 298 300 301 304 306 308 310 313 315 314 314 317 321 324 327 328 328 327 324 325 325 325 325 325 326 326 332 338 341 343 345 347 347 344 334 325 321 318 318 319 319 319 316 315 314 312 310 308 306 303 300 299 297 296 295 296 295 293 293 292 294 292 294 296 297 303 304 303 302 301 300 300 302 302 302 303 303 304 305 305 305 304 304 306 309 311 309 306 305 304 303 300 296 293 293 293 293 292 291 289 287 285 284 283 284 287 287 286 286
342 342 344 345 347 348 346 341 338 336 336 336 337 340 341 341 340 340 342 344 346 344 344 344 345 349 350 352 358 365 365 360 352 352 349 348 348 347 345 342 338 333 328 324 320 316 312 309 308 308 307 305 306 303 301 298 298 299 297 296 294 292 291 289 288 287 287 290 290 290 290 291 293 296 297 299 301 304 306 308 311 312 312 312 314 317 319 321 323 324 323 322 322 323 324 324 325 325 324 325 331 336 341 345 350 349 344 336 327 323 321 318 316 317 316 315 315 313 312 311 310 308 306 303 300 298 299 298 296 297 296 294 293 293 295 296 297 298 299 310 307 305 305 303 301 301 303 304 304 306 307 308 308 310 308 306 306 306 309 311 309 308 306 303 302 300 297 296 294 292 292 292 292 289 286 285 284 284 287 291 289 288 287
341 341 342 344 345 346 345 339 337 336 336 336 338 339 340 340 338 338 339 340 343 342 342 342 344 347 350 353 359 366 367 362 355 351 351 350 349 347 343 339 335 330 324 320 317 315 310 308 309 308 305 306 305 303 302 298 298 299 298 297 294 291 291 290 289 288 289 291 292 291 291 291 292 297 297 298 301 303 304 306 309 310 309 311 315 318 318 320 322 323 321 319 320 321 322 323 324 325 324 326 331 336 340 346 350 347 339 333 327 326 323 319 314 315 315 313 313 312 310 310 309 308 307 305 301 300 299 299 298 297 296 295 294 295 297 299 299 301 304 320 312 309 308 306 303 302 304 305 305 309 314 315 315 315 312 311 312 310 310 311 309 309 307 304 302 302 296 294 293 292 292 292 292 289 287 286 285 287 290 293 292 290 289
339 340 341 342 343 344 343 337 336 335 335 335 337 338 337 337 336 336 337 338 338 339 340 341 343 346 350 355 362 366 365 358 353 344 345 344 343 342 337 333 330 326 320 317 316 315 309 310 311 308 306 308 304 303 302 299 300 302 302 299 293 291 291 289 288 288 290 291 292 292 292 292 292 296 298 299 301 303 304 305 307 308 309 310 313 316 318 320 321 321 320 318 319 319 319 320 321 322 324 327 332 335 339 344 347 342 334 330 329 329 323 319 315 313 315 314 312 310 309 309 308 307 307 304 302 301 299 299 299 297 295 295 295 296 297 300 300 303 307 321 316 313 310 306 303 302 304 306 307 313 323 329 328 319 318 319 319 316 314 314 313 310 307 304 302 302 296 295 295 295 293 292 292 290 288 287 288 290 291 292 293 292 291
337 339 341 341 342 342 340 336 335 335 335 336 337 337 336 336 335 335 336 335 335 337 338 339 342 344 351 359 364 365 363 357 352 340 337 336 336 335 331 327 324 322 319 316 317 317 313 313 312 309 308 307 306 304 302 302 304 307 305 300 294 292 290 289 288 288 290 292 293 293 292 292 293 296 298 300 301 303 304 306 307 308 310 310 311 314 317 319 320 318 318 318 317 317 319 320 321 321 324 327 332 334 337 339 341 338 331 329 329 325 321 319 316 311 312 315 312 310 308 307 306 306 304 302 301 300 299 299 299 298 296 295 296 296 298 300 302 304 307 313 316 314 310 306 303 304 305 307 309 314 324 333 335 326 324 321 321 321 320 318 315 311 308 305 302 302 299 298 298 297 295 291 290 288 288 289 290 290 292 293 293 293 293
334 336 338 340 341 340 339 336 335 335 335 337 339 338 336 335 334 334 334 333 335 337 339 340 341 344 350 361 364 362 360 357 354 342 337 333 332 330 328 325 323 322 321 320 319 320 319 317 314 311 309 307 308 307 305 306 308 310 307 301 294 293 289 289 288 288 290 292 293 294 294 294 296 296 298 300 301 302 303 305 307 308 309 309 310 313 317 319 317 316 317 317 317 318 320 321 321 322 323 326 333 336 339 340 338 336 332 328 327 324 324 322 316 311 312 314 313 310 308 306 306 305 303 301 300 300 302 300 299 297 297 296 296 296 298 301 304 306 305 311 315 314 311 307 306 307 308 308 311 314 321 331 337 331 328 324 322 321 319 317 314 311 309 307 305 304 300 302 299 297 293 290 288 288 289 291 292 291 293 295 296 297 296
333 334 335 337 337 337 336 335 335 335 336 338 339 338 337 336 334 333 332 332 334 336 339 340 341 342 348 356 362 360 359 357 355 346 339 334 332 330 328 327 325 323 324 324 322 322 324 325 321 318 314 311 312 314 310 311 314 314 310 303 297 294 291 288 288 288 289 291 292 294 295 296 296 297 296 298 301 302 302 304 306 306 307 308 309 312 315 317 316 316 317 317 317 318 320 321 322 323 325 326 336 340 342 339 336 335 331 328 326 324 325 323 315 311 312 313 312 312 308 306 304 303 302 301 299 299 300 299 298 298 297 296 296 296 298 302 304 306 305 311 312 314 312 308 308 310 312 312 315 318 321 328 333 331 328 325 323 321 318 315 311 309 309 309 308 306 301 301 298 296 294 290 288 289 290 291 292 292 294 296 296 297 298
333 334 334 333 332 333 334 336 336 337 339 341 342 344 342 337 334 332 330 331 333 335 337 339 341 342 346 353 361 359 357 356 354 347 341 335 334 333 331 329 328 326 326 327 328 327 330 330 327 325 322 318 319 320 317 317 316 311 306 304 297 295 292 290 288 288 289 291 292 293 293 293 295 297 296 298 300 301 302 304 305 305 305 307 308 310 313 314 314 315 316 317 317 317 319 321 323 324 326 328 336 338 336 333 332 330 327 325 323 321 323 320 314 310 310 311 310 312 309 305 303 302 301 300 299 299 299 298 299 300 297 297 296 297 299 301 304 305 305 312 311 313 311 308 309 311 313 315 318 320 323 325 327 327 325 323 320 319 317 313 312 311 309 308 307 304 299 298 297 295 293 291 288 289 291 292 292 293 295 295 296 297 297
332 332 332 331 330 332 334 338 340 342 345 349 351 352 348 339 333 329 328 330 332 333 336 338 340 341 345 349 357 357 356 355 352 347 341 336 333 333 333 332 332 331 330 331 333 333 331 329 328 327 326 325 325 322 321 320 314 308 304 303 298 296 294 293 290 288 289 290 290 291 292 293 294 298 297 298 299 301 303 304 305 305 305 307 308 309 311 314 315 315 315 317 318 319 320 321 323 326 329 331 335 334 332 330 329 326 324 321 318 317 316 316 313 310 310 308 308 308 306 305 304 303 302 301 300 299 299 299 298 299 298 298 297 298 300 301 303 306 306 313 313 311 310 308 310 312 315 318 321 322 325 325 324 324 322 320 318 317 317 315 315 313 311 308 306 302 299 297 296 293 292 291 289 290 291 293 293 293 295 296 297 297 297
329 330 330 330 330 332 336 341 343 346 350 352 353 352 347 338 332 328 327 328 330 331 335 338 339 340 343 345 350 354 354 354 351 346 343 340 337 336 335 335 336 336 336 336 335 334 332 331 330 328 328 327 326 323 322 320 313 307 305 302 298 297 295 293 292 290 289 290 290 291 292 293 294 297 298 298 298 301 304 303 304 306 307 309 309 310 312 314 314 315 316 317 318 320 321 322 325 329 333 335 337 335 333 331 328 325 322 321 318 316 313 313 311 310 310 309 309 307 305 304 303 302 303 302 301 301 300 299 298 300 299 298 298 297 298 302 302 305 307 313 312 310 308 309 311 314 316 319 322 323 325 325 323 321 320 318 316 315 315 314 314 313 311 307 303 300 301 298 294 293 294 294 291 291 292 294 295 294 294 297 299 298 297
327 329 328 328 330 334 336 341 343 346 348 350 349 347 341 334 329 327 327 327 328 331 335 337 340 341 342 343 345 350 350 350 348 344 343 343 341 340 339 337 336 337 338 336 335 333 332 331 328 327 326 326 324 324 323 321 315 307 305 301 297 297 295 294 292 291 292 292 292 291 292 294 295 296 297 298 300 302 304 305 307 306 306 307 308 309 312 314 316 316 318 320 321 321 324 326 329 333 335 334 337 337 337 335 332 328 325 323 321 317 313 314 314 311 311 310 309 307 305 303 303 302 303 304 305 305 301 300 300 301 299 298 298 298 298 301 303 304 310 312 309 309 308 308 310 313 315 318 321 323 324 323 322 319 318 317 315 314 314 313 313 313 311 307 303 300 299 296 294 293 295 295 293 292 293 293 293 293 294 299 300 300 299
326 327 326 326 330 333 335 340 341 344 346 346 345 342 336 330 327 325 326 327 328 331 334 336 338 341 342 344 344 347 347 348 348 346 344 343 342 341 340 337 336 337 336 334 334 334 331 328 327 327 325 324 322 323 323 322 315 307 305 301 296 296 294 293 292 292 293 293 293 293 295 296 297 298 299 299 302 305 307 307 308 308 308 309 311 310 313 315 316 318 320 323 324 324 327 331 334 337 335 331 329 330 333 336 337 331 325 320 317 315 314 314 317 316 315 313 309 307 305 305 304 302 303 306 310 308 303 303 302 300 300 299 298 299 299 301 302 305 309 310 308 308 308 308 309 311 313 315 319 323 323 322 321 318 317 316 314 313 313 314 314 313 311 308 303 300 299 296 294 294 294 294 293 293 293 294 295 295 295 300 301 301 301
327 326 325 327 329 331 333 337 339 342 342 342 341 337 331 326 325 325 325 326 330 332 334 335 337 340 341 343 345 346 345 347 349 348 347 344 340 338 338 335 334 334 333 333 333 332 329 328 328 326 324 324 322 320 320 318 310 306 305 301 295 296 295 293 292 292 293 293 293 294 295 297 298 301 301 301 303 308 311 310 310 311 311 313 315 316 316 317 317 319 322 325 327 328 330 334 337 338 334 329 324 324 326 330 333 328 320 316 314 314 315 317 321 319 317 314 311 308 307 307 305 303 306 309 311 308 304 303 301 300 301 300 301 300 300 301 301 302 304 308 308 308 308 308 309 310 312 313 317 321 323 322 321 317 315 315 314 313 313 314 313 311 310 308 303 301 300 298 297 297 295 294 294 295 296 297 297 297 297 301 302 300 300
325 325 325 326 327 328 328 331 331 332 331 328 326 324 323 324 324 324 324 328 331 332 334 335 336 339 340 340 342 343 345 346 352 351 349 345 342 340 338 333 330 328 326 324 324 325 328 330 329 327 321 317 314 312 312 307 306 304 303 302 296 295 296 295 292 292 292 294 294 295 296 297 299 301 301 302 305 309 312 315 317 321 324 327 328 327 325 323 322 323 328 333 336 339 340 336 331 328 325 323 319 319 319 318 316 315 315 315 316 317 321 326 327 322 319 317 316 314 311 309 308 308 308 308 308 308 308 307 305 305 306 306 303 302 303 303 302 302 305 308 311 311 311 309 310 311 313 314 315 317 318 318 317 317 315 313 312 312 313 311 309 308 307 305 304 303 301 299 298 299 301 301 299 299 298 297 297 297 298 300 300 302 304
324 324 324 324 326 327 327 327 328 329 327 324 322 322 324 326 324 324 324 327 331 332 334 335 336 339 339 340 341 342 343 345 351 352 350 347 343 342 340 335 331 327 324 322 321 322 323 325 325 323 317 316 314 311 311 309 308 303 302 301 296 297 298 294 292 292 292 294 294 295 296 297 299 300 302 305 307 309 312 315 319 322 325 327 329 329 329 327 325 325 329 335 340 344 343 337 330 327 324 322 319 319 318 317 316 315 315 316 319 320 323 329 329 322 321 320 319 318 315 312 311 311 310 310 310 310 309 309 308 308 307 307 305 305 304 305 303 304 307 311 316 316 314 313 311 312 313 315 316 316 317 316 316 314 314 314 313 313 311 308 306 306 305 305 305 305 300 300 300 300 301 300 298 298 298 298 298 298 299 299 300 301 303
324 323 324 323 323 326 327 325 325 325 322 322 323 323 324 325 325 324 324 325 331 332 333 334 337 339 340 340 341 341 340 342 349 353 351 348 344 341 340 336 331 327 324 322 320 319 318 317 318 317 315 313 312 310 308 308 307 303 301 299 298 299 298 294 292 292 292 294 294 295 297 299 300 301 303 305 308 310 312 316 320 324 326 328 329 330 332 332 330 328 333 338 343 346 343 335 330 327 325 324 322 321 320 319 319 318 317 319 321 323 325 328 329 325 326 326 324 323 319 316 314 313 312 313 311 311 311 311 311 310 310 310 309 308 307 307 305 307 310 314 319 321 319 318 315 314 314 315 316 317 317 317 317 315 314 313 312 310 309 306 305 305 305 306 306 303 301 301 301 301 300 298 297 297 297 297 298 299 299 299 299 300 300
325 323 323 322 322 324 325 322 322 321 319 320 325 327 326 326 326 325 325 326 329 331 333 336 338 338 338 337 338 339 339 340 347 352 349 345 342 339 336 334 330 326 324 322 320 318 316 314 314 313 313 310 310 309 306 303 305 301 300 299 299 299 297 294 292 293 294 295 295 296 297 299 299 301 304 306 309 310 313 316 320 324 327 328 329 330 333 334 334 334 336 341 344 346 342 336 331 328 327 325 323 323 323 322 323 323 322 321 324 326 327 328 328 331 334 333 329 326 323 320 317 315 313 313 312 312 312 312 312 312 313 313 311 310 308 309 309 311 312 315 320 321 322 323 320 317 316 315 316 317 318 318 318 315 313 311 310 308 306 305 305 306 305 305 304 302 300 299 298 298 297 297 297 297 297 296 296 297 297 297 297 298 298
324 322 321 320 320 321 321 320 319 318 318 320 325 328 329 328 327 327 327 328 329 332 334 336 337 337 336 336 337 338 337 339 344 350 346 341 338 337 335 332 329 326 323 321 319 316 314 313 312 311 312 310 310 308 306 303 302 299 299 299 299 298 296 294 292 294 295 296 297 297 298 298 299 301 304 306 308 309 311 315 317 320 324 328 330 331 333 334 336 337 339 341 344 345 342 337 333 330 328 326 324 326 327 325 325 328 327 324 326 327 330 331 330 337 341 339 333 329 327 323 318 316 314 314 314 314 314 314 315 315 315 314 313 313 309 310 310 312 312 316 318 318 319 321 319 317 316 316 315 315 317 317 316 313 311 310 308 306 305 305 305 304 303 302 302 302 300 298 295 295 295 296 296 297 297 297 296 296 295 294 295 298 298
323 321 319 319 319 320 319 318 318 317 318 321 325 328 329 329 329 329 330 331 331 333 334 336 336 335 336 335 336 335 335 337 340 348 346 342 339 337 335 332 329 326 323 320 319 318 313 311 310 310 311 310 308 308 306 304 299 299 299 299 297 297 295 294 293 294 296 296 298 298 298 298 299 303 304 305 306 308 310 313 317 319 321 324 328 331 333 335 338 340 341 341 344 344 340 336 334 332 330 327 328 333 332 327 326 330 331 327 328 329 331 334 336 342 344 342 336 332 327 323 320 317 315 317 321 320 316 317 319 317 315 316 316 315 311 309 311 314 312 316 318 318 317 317 315 314 314 314 314 314 314 314 314 312 309 308 306 305 304 303 302 302 302 300 299 300 298 297 295 294 294 294 294 294 295 295 295 296 296 294 294 296 297
324 321 319 319 319 319 319 317 317 317 318 321 325 328 329 330 331 332 333 334 334 334 334 335 333 333 333 333 333 332 334 336 339 345 347 345 341 338 336 334 331 328 325 321 320 318 314 312 311 312 310 309 307 307 307 304 299 300 300 300 296 295 295 294 293 295 295 297 298 299 299 299 300 303 305 305 307 309 311 314 320 323 324 325 328 331 336 338 339 341 342 342 344 345 342 337 335 334 332 329 332 337 333 327 327 333 334 329 329 331 334 339 346 346 345 342 338 335 328 325 321 319 319 322 327 327 321 321 322 322 320 318 317 316 314 313 315 316 314 317 318 318 315 314 313 312 312 311 312 311 311 311 312 309 306 305 304 303 303 301 300 301 300 298 296 296 295 294 294 292 291 292 292 292 292 293 293 295 294 294 294 293 293
325 322 320 319 319 319 318 317 317 317 318 321 324 326 328 330 333 336 339 339 336 335 335 334 333 332 330 332 330 330 333 335 337 343 346 345 341 337 336 335 332 328 324 319 317 316 316 315 314 313 311 308 307 306 306 303 302 302 300 300 296 294 294 294 295 296 296 296 298 299 300 300 300 303 305 307 308 309 313 317 322 325 327 329 331 333 337 338 338 340 342 344 345 346 345 340 336 334 333 332 333 334 330 327 329 335 336 333 335 338 337 345 352 348 345 343 339 337 332 327 323 322 321 323 328 330 327 325 326 326 325 323 321 318 315 315 316 317 316 319 317 317 314 313 312 311 310 310 310 310 309 309 309 306 304 302 300 300 300 300 300 298 297 295 295 293 293 292 293 291 290 290 290 290 289 290 291 291 291 291 291 291 291
326 323 321 321 321 320 319 317 316 317 318 320 322 325 328 329 333 338 343 344 341 339 336 334 332 330 328 329 329 330 332 334 335 342 346 343 339 336 335 333 329 325 322 318 317 316 316 316 314 313 311 308 307 306 305 304 304 303 302 300 296 294 294 294 296 298 299 298 299 300 301 301 301 303 304 307 309 310 312 317 321 324 327 331 332 334 337 338 340 342 345 347 348 348 347 344 339 336 334 333 333 331 328 328 331 336 336 340 350 352 347 348 352 348 345 343 341 339 335 331 325 323 322 323 326 329 330 329 328 327 326 325 323 320 316 316 317 319 317 318 318 315 313 314 312 311 311 310 309 308 308 307 306 305 304 302 299 298 298 298 298 296 295 294 293 293 293 291 291 291 290 290 290 289 288 290 291 290 289 289 289 290 290
326 324 323 323 322 321 320 317 316 316 317 318 320 324 327 328 332 338 342 344 343 340 335 334 333 331 328 327 328 328 330 332 334 339 341 338 336 336 334 329 325 322 321 320 318 318 317 316 313 312 310 309 309 307 306 306 304 303 304 301 296 294 294 294 296 298 300 301 302 302 302 303 304 305 306 308 309 310 311 316 321 324 328 330 332 334 339 340 341 342 345 348 349 350 349 348 347 344 340 340 339 333 330 331 336 342 340 348 362 362 356 353 353 348 346 344 342 340 338 334 327 324 323 324 326 329 331 329 328 328 326 325 323 321 318 316 317 319 317 317 318 315 314 314 312 311 312 311 311 309 308 308 307 306 306 304 302 300 298 297 297 297 294 293 294 294 293 292 290 290 290 290 289 289 288 288 289 289 289 289 289 289 289
327 325 324 323 322 321 320 317 316 315 316 317 319 322 325 327 331 335 339 341 339 335 334 334 336 335 331 326 326 326 328 330 332 335 335 334 332 333 331 325 323 323 322 321 319 319 319 317 315 312 309 309 309 310 307 305 304 304 306 304 298 294 294 294 297 298 300 301 302 302 303 305 306 308 308 308 310 312 314 318 322 325 328 331 333 335 340 342 341 339 341 344 347 350 352 352 352 351 348 349 344 336 332 331 337 344 344 351 361 363 360 356 354 349 346 344 342 340 338 335 330 326 326 325 326 329 331 330 329 328 325 324 322 322 321 318 318 319 317 317 318 315 316 314 313 312 313 314 313 312 310 310 309 307 308 306 305 303 300 299 298 296 294 293 295 294 296 295 291 290 291 290 288 287 287 286 286 286 286 286 286 287 288
327 327 326 325 323 321 320 318 317 315 315 316 318 319 322 325 328 332 334 337 335 333 332 334 336 337 333 326 325 327 329 329 331 334 334 333 331 330 328 326 326 327 327 324 321 319 322 320 317 315 312 312 309 312 308 306 305 308 310 308 300 295 294 294 297 299 300 301 301 304 305 306 307 309 308 309 311 314 316 320 324 327 329 332 334 336 340 341 338 336 337 340 345 348 350 352 354 354 354 354 345 339 335 332 334 339 344 349 355 360 358 356 353 347 346 342 341 340 339 336 333 329 326 326 326 328 330 328 327 326 325 325 324 322 323 321 321 320 319 317 317 316 314 314 313 313 314 315 316 315 314 313 311 310 310 309 308 305 302 301 300 297 294 294 296 297 298 297 293 292 291 289 289 289 287 286 285 285 284 285 286 287 288
328 328 328 327 325 323 320 317 316 314 313 314 315 316 319 323 326 328 331 333 333 333 332 332 334 334 331 325 324 326 328 329 331 334 333 331 329 328 327 328 331 332 330 326 323 322 324 323 321 318 316 315 312 312 310 309 308 312 314 311 302 296 294 295 297 299 301 301 302 305 307 306 307 309 310 310 312 315 318 322 326 329 331 333 335 335 338 338 335 333 335 339 343 345 346 350 356 358 357 355 343 339 337 335 337 340 343 347 351 356 356 355 352 347 346 341 338 336 336 335 333 331 330 329 326 326 327 326 325 325 326 326 325 324 324 323 323 323 321 318 318 317 315 315 315 315 317 318 318 318 317 316 313 313 312 311 309 306 304 303 300 297 294 297 298 298 299 296 293 293 291 289 289 289 287 287 286 285 285 284 284 285 287
330 330 331 331 329 325 322 318 318 317 315 313 313 315 317 319 321 323 325 326 327 327 326 327 328 325 323 323 323 325 326 326 329 331 331 329 328 328 330 336 340 338 335 333 330 329 328 326 323 320 320 316 315 313 311 310 309 307 309 307 298 297 297 297 299 300 301 302 303 305 306 306 307 310 312 312 314 317 320 323 327 330 333 332 329 327 331 330 330 331 333 337 338 338 339 341 346 349 350 350 348 345 340 337 338 341 345 347 349 352 353 350 346 342 339 333 331 328 327 326 328 330 330 330 326 322 322 322 323 323 322 321 324 325 326 326 325 324 322 320 319 319 318 317 319 320 320 321 322 321 320 317 316 313 312 312 311 309 308 306 303 302 300 299 299 299 295 293 292 292 290 289 289 290 290 288 287 288 287 285 283 282 282
332 332 333 337 337 330 323 319 318 317 316 314 313 315 316 318 320 321 322 322 323 324 324 324 324 321 320 322 325 327 328 328 328 331 332 330 329 329 332 338 343 341 339 335 332 331 329 327 323 322 324 319 315 314 313 310 310 307 306 305 300 300 299 299 298 298 300 302 303 305 306 306 307 310 312 313 315 318 320 324 327 328 330 329 325 325 328 328 329 331 333 336 338 339 338 339 342 345 349 351 351 348 343 339 339 342 346 348 350 353 352 349 346 338 333 330 329 327 325 325 327 328 328 327 323 321 319 320 321 322 320 320 323 325 324 325 324 326 323 323 323 322 320 319 321 322 322 323 323 322 320 318 318 316 316 315 313 311 309 307 304 303 303 302 302 299 295 293 291 291 289 289 289 291 290 289 288 289 288 285 284 283 282
335 334 335 340 342 335 327 322 319 317 316 314 313 314 316 317 318 320 321 321 321 322 321 320 320 320 320 322 327 328 330 331 332 333 332 331 330 331 334 340 346 346 343 339 336 333 329 326 323 325 327 321 318 315 315 313 311 308 306 305 302 302 300 299 298 298 300 302 303 304 305 306 308 311 312 315 317 317 320 322 324 325 326 325 325 325 327 329 329 330 333 336 339 341 341 341 342 345 348 352 353 350 344 343 343 345 347 349 351 353 351 348 346 338 333 329 328 325 323 323 325 326 325 324 320 318 316 317 318 319 318 318 320 323 322 324 323 325 325 324 325 324 322 321 322 325 325 324 323 323 321 319 319 318 317 316 314 313 311 309 306 305 303 303 302 299 296 295 291 291 290 289 290 292 291 290 289 289 287 285 285 284 283
334 333 334 339 342 337 330 322 320 319 318 316 314 313 314 316 317 319 321 320 320 321 320 318 319 321 321 323 327 328 330 335 337 335 334 333 332 332 335 342 348 348 345 342 341 336 329 327 326 328 327 324 319 316 316 314 311 309 307 305 303 301 299 299 298 298 299 301 302 302 303 306 308 311 312 315 317 318 320 320 322 323 324 325 326 327 331 331 331 332 335 338 342 344 344 345 347 348 351 355 354 352 349 348 348 347 348 350 350 349 348 345 343 339 333 328 327 324 323 322 323 324 323 321 318 316 315 316 316 316 316 316 318 321 323 322 324 324 325 323 325 324 321 323 327 328 326 325 324 324 323 321 321 318 318 318 318 318 315 312 308 307 305 302 301 299 298 296 292 291 289 290 292 293 291 289 289 288 287 285 284 283 282
334 333 333 336 338 337 334 324 322 320 318 317 315 313 314 315 316 317 319 319 318 318 318 320 321 323 324 326 328 328 335 345 347 341 337 333 332 333 337 341 346 348 347 345 344 340 332 332 330 329 328 325 321 316 315 315 314 312 309 307 303 302 301 300 299 298 299 301 302 302 303 305 307 312 315 317 317 319 322 323 324 326 327 327 328 329 333 334 333 334 337 341 345 348 350 353 354 354 356 358 360 359 357 356 354 350 349 349 347 346 344 343 341 338 332 326 323 323 322 322 321 321 320 319 317 315 315 316 316 316 315 316 318 320 322 322 325 323 323 323 324 324 324 327 332 330 327 326 326 325 325 323 322 320 320 322 322 321 317 314 311 309 306 304 300 298 298 296 294 292 290 291 293 294 293 290 288 287 286 285 284 284 283
333 332 331 332 334 336 335 326 323 321 319 318 315 313 314 315 316 317 317 317 316 317 320 322 323 323 323 325 326 331 341 350 350 343 340 336 335 334 336 338 343 347 348 347 345 343 337 336 333 330 329 326 321 317 316 318 317 315 310 307 302 302 301 300 300 299 299 301 302 302 303 305 307 313 317 319 319 321 322 324 326 328 329 330 330 331 334 337 337 337 339 342 347 351 354 356 355 353 355 355 361 363 362 360 355 352 349 347 345 342 340 340 339 336 329 323 319 320 321 319 318 318 317 317 316 314 314 314 313 314 313 314 315 317 320 324 326 323 321 324 323 326 330 331 334 332 328 328 327 327 325 324 324 323 324 326 325 321 317 315 312 309 306 304 300 298 299 296 295 293 292 293 292 291 291 290 288 287 287 287 285 284 283
331 330 329 329 330 333 334 329 326 323 320 318 316 314 313 314 314 314 314 315 317 319 321 323 323 321 322 324 325 332 342 347 347 344 343 340 338 336 336 337 340 345 350 349 346 344 340 338 336 333 330 326 322 319 317 316 316 314 310 307 301 302 300 299 300 299 300 301 301 301 303 305 309 316 318 320 321 323 323 323 326 329 330 332 333 334 336 339 342 343 344 346 350 353 355 355 352 350 351 353 360 362 362 360 355 350 347 345 342 339 338 337 336 331 325 322 320 319 319 318 317 317 316 315 314 312 313 313 312 311 312 312 313 314 317 322 325 322 318 323 324 329 334 333 334 332 329 328 327 328 327 326 326 327 328 327 325 321 318 316 313 310 307 304 301 298 297 295 294 292 292 292 290 289 289 289 288 288 290 291 287 285 283
329 328 327 326 327 328 330 330 328 325 322 320 317 314 311 311 312 313 314 315 318 320 322 321 321 321 323 324 326 332 340 343 344 344 343 343 341 338 337 339 341 345 349 350 347 344 341 339 337 335 331 328 323 320 318 314 312 311 310 307 303 301 300 299 299 299 300 301 301 302 302 305 310 317 319 320 322 324 324 324 326 328 329 331 334 336 338 341 345 346 346 348 351 353 355 354 352 349 349 350 359 361 360 358 355 350 347 344 340 339 337 334 331 326 322 322 321 319 318 317 317 316 315 314 314 311 311 311 310 309 310 311 311 311 312 317 320 318 316 322 323 329 334 334 333 332 328 327 327 327 327 326 326 330 330 328 325 321 319 317 315 314 311 308 303 299 296 295 294 292 293 292 290 289 288 289 290 289 290 291 288 286 284
328 327 327 326 325 325 326 328 327 324 322 320 318 315 312 310 310 312 314 316 319 320 321 320 320 321 324 325 327 332 338 340 340 341 341 343 342 339 339 341 343 345 348 349 348 345 341 340 338 334 331 329 325 321 317 314 312 310 310 306 302 300 300 299 299 299 300 301 302 303 303 305 311 319 319 320 322 325 325 324 326 327 328 330 333 334 336 339 342 343 346 348 351 352 353 353 352 349 348 351 359 360 359 356 354 351 347 344 341 340 337 331 326 324 321 320 320 319 317 316 316 316 315 313 312 311 310 311 310 308 308 309 310 309 310 313 316 314 314 321 322 327 333 334 332 330 328 327 327 328 328 326 325 329 330 328 324 321 319 316 316 315 313 309 305 299 296 294 295 294 292 292 290 289 288 290 291 290 289 288 288 286 284
328 327 326 325 324 324 324 324 323 321 320 320 319 317 314 312 309 310 312 314 317 318 320 318 318 320 324 326 328 331 335 337 338 338 339 340 340 340 340 342 344 346 348 348 347 346 341 340 338 334 331 329 325 320 316 314 313 310 309 306 301 301 300 299 300 299 300 302 303 304 305 307 312 318 318 319 322 324 325 324 326 327 329 331 332 335 336 337 340 343 346 349 350 350 349 349 350 347 348 353 360 361 360 356 353 350 347 345 342 340 337 332 327 324 321 318 318 318 317 316 315 315 315 312 311 311 310 310 310 307 306 308 308 308 310 313 313 311 313 321 323 325 332 333 330 328 327 327 326 327 326 325 324 327 326 324 322 319 317 316 314 314 312 308 305 300 296 294 294 293 290 289 289 288 288 288 289 289 289 289 288 286 285
328 326 324 323 321 321 321 320 320 319 319 319 319 318 316 313 309 309 309 310 315 317 318 318 318 320 323 326 328 331 333 334 336 335 337 337 338 339 340 343 344 345 346 346 346 345 341 338 337 334 330 326 323 319 315 314 312 309 308 307 301 300 299 299 300 299 300 302 303 305 306 308 313 318 319 320 321 323 324 324 326 328 329 330 333 336 338 339 341 343 346 348 349 348 345 345 346 346 348 354 360 361 359 355 352 349 346 344 342 340 337 334 331 323 322 320 319 318 316 315 314 313 312 311 310 309 309 309 309 307 306 307 308 308 310 311 311 311 315 320 322 324 329 331 328 326 325 325 325 324 323 322 322 324 323 321 320 318 316 315 314 313 310 306 304 300 296 294 294 292 290 288 288 287 287 287 287 288 288 287 285 283 283
328 327 326 322 321 321 321 320 320 321 322 322 321 319 317 314 311 309 309 309 314 315 316 317 318 320 322 325 328 330 333 332 333 332 332 334 335 337 339 341 343 344 345 345 344 342 340 337 335 333 328 324 320 318 314 313 312 307 307 307 301 301 300 299 299 299 300 302 303 305 306 309 314 318 320 320 321 323 323 324 327 329 330 330 332 334 340 340 340 343 345 346 347 345 343 343 343 343 347 353 360 359 357 355 352 349 346 342 340 338 336 335 333 324 323 322 319 319 316 314 313 313 310 308 308 308 309 309 307 306 306 307 307 308 309 310 311 311 316 320 322 324 326 327 324 324 324 324 325 323 322 321 321 322 321 320 319 317 315 315 313 311 309 306 303 301 296 295 293 291 290 289 287 287 287 288 287 287 286 283 282 282 281
328 329 325 322 321 322 321 320 321 322 325 326 324 321 319 316 312 309 309 309 314 315 315 316 318 319 321 323 326 329 331 330 331 331 330 331 334 336 337 338 341 342 342 343 343 341 337 335 333 330 326 322 319 317 314 313 311 310 308 307 302 303 301 300 299 300 302 304 305 307 307 308 312 317 319 320 321 324 325 326 327 328 329 329 331 333 338 339 340 342 345 346 345 343 342 342 341 341 345 355 361 358 356 355 353 349 345 341 338 337 335 334 333 327 326 325 322 319 316 315 314 314 311 308 308 308 308 308 306 306 306 306 306 307 309 310 310 311 315 320 323 325 324 323 322 322 322 324 324 324 324 322 321 320 320 319 317 315 315 314 311 309 308 305 303 301 297 295 291 290 290 289 287 287 288 288 287 286 286 283 282 282 281
326 327 325 322 323 323 322 322 323 325 327 328 326 323 321 319 314 311 309 309 314 315 313 314 317 318 320 321 324 328 329 329 329 330 330 330 332 333 335 337 339 340 340 341 340 339 335 333 331 329 325 322 318 316 313 314 311 312 309 306 303 303 300 300 300 301 303 305 306 307 307 309 311 317 319 322 323 325 326 327 327 327 328 329 331 333 336 337 339 341 344 346 346 343 340 340 340 340 345 356 362 359 356 354 351 348 344 339 336 336 333 332 331 330 328 328 326 322 318 316 314 314 310 307 308 307 305 306 306 305 306 305 305 306 308 309 308 311 313 319 322 323 322 320 320 321 322 324 324 324 324 323 321 319 318 317 315 314 313 312 310 309 307 305 303 301 299 295 292 292 290 288 288 288 289 287 286 286 286 284 284 283 281
323 324 323 324 325 325 324 324 325 327 328 329 328 324 320 318 315 312 309 308 310 312 313 313 315 318 319 319 322 326 326 325 324 328 329 330 330 332 334 336 337 338 338 338 337 335 332 331 330 328 326 322 317 316 315 313 310 309 307 305 304 301 301 300 301 302 304 305 306 307 308 310 313 317 319 322 324 324 324 325 327 327 327 328 329 331 335 336 337 339 342 344 345 342 338 336 336 338 344 353 359 356 353 351 349 346 341 338 336 334 332 329 326 326 324 324 323 322 319 316 314 311 309 306 305 304 303 303 303 303 304 305 305 306 307 307 308 308 310 313 314 315 316 316 317 317 318 320 321 323 323 322 320 316 316 314 313 311 310 309 307 306 306 305 303 301 299 296 295 294 292 290 289 289 288 289 289 289 290 288 287 286 285
323 323 324 325 324 324 323 324 325 327 329 329 327 323 319 316 313 310 309 308 309 310 312 313 315 317 319 319 321 323 323 323 323 328 330 330 330 332 335 336 337 337 337 337 336 334 332 330 328 326 323 320 318 315 314 313 310 309 306 305 303 302 301 300 301 301 303 305 306 307 308 310 312 316 319 320 321 322 323 324 325 326 327 328 329 331 333 335 337 339 341 344 345 343 338 336 335 335 339 345 356 354 351 349 347 344 339 338 336 335 332 328 325 323 321 320 319 319 316 313 313 313 311 307 305 304 303 303 302 302 303 305 305 305 307 307 307 307 309 310 313 314 315 315 317 318 318 320 321 323 323 322 320 314 313 312 311 309 309 308 306 305 305 303 302 300 297 297 295 293 291 291 291 290 291 293 292 290 291 289 288 288 288
323 323 323 324 323 323 324 324 325 326 329 329 326 323 319 316 313 310 308 308 308 310 312 314 316 316 318 320 320 321 322 322 323 327 329 330 330 332 334 336 336 336 335 335 334 333 331 330 327 324 321 318 317 315 314 312 309 310 307 306 303 301 301 301 302 302 304 304 305 307 308 309 312 316 317 318 319 321 323 324 325 325 327 328 328 330 332 333 336 339 342 344 345 342 338 335 334 333 334 339 354 352 349 346 343 341 338 337 335 335 332 328 326 322 320 318 317 316 314 313 312 312 311 308 305 304 302 302 301 301 302 304 303 304 307 307 307 307 309 309 312 313 314 315 317 319 319 320 321 322 321 320 318 313 312 311 310 308 308 308 306 304 304 302 301 300 296 296 295 293 292 293 293 293 293 295 293 291 291 290 291 291 291
322 322 322 322 321 321 322 322 324 325 328 328 326 322 319 316 313 310 308 308 308 310 312 314 316 317 317 320 320 320 321 322 324 327 328 329 330 333 334 335 335 334 335 334 333 331 329 328 326 322 320 317 316 315 315 312 308 308 308 306 303 301 301 301 303 304 305 306 307 308 310 312 314 317 318 319 320 322 323 323 324 326 327 328 328 328 331 333 336 338 341 343 344 341 336 333 331 332 332 335 351 351 348 344 341 339 336 335 335 334 332 329 327 321 319 316 315 314 314 314 312 311 310 306 304 303 302 301 300 300 301 302 303 305 307 307 307 308 308 308 311 312 313 315 317 318 319 320 320 320 320 319 317 314 314 312 311 309 308 307 306 305 303 302 302 301 298 297 296 294 293 295 297 295 293 293 293 292 292 292 293 292 292
321 321 322 321 319 319 320 320 322 324 326 327 325 321 319 316 313 310 308 308 308 310 313 315 316 317 318 320 320 320 321 323 324 326 327 329 331 334 335 334 334 334 335 333 332 330 328 327 325 323 320 318 316 315 314 311 309 307 307 306 302 301 301 302 303 305 305 307 309 309 311 313 316 318 319 320 321 323 323 323 323 325 325 326 327 327 330 331 334 337 339 341 342 340 335 331 329 330 331 332 346 348 345 342 339 336 332 332 333 331 330 328 326 320 318 315 313 312 312 313 310 308 306 303 303 303 301 301 300 299 299 301 303 305 306 307 306 308 309 308 312 312 313 315 316 317 319 320 320 320 320 319 317 315 314 313 312 310 309 308 307 306 304 302 301 301 301 299 297 296 296 298 299 297 295 294 293 292 292 294 294 293 293
