ncols         53
nrows         69
xllcorner     259000.0
yllcorner     601000.0
cellsize      1000.0
NODATA_value  -9999
-9999.00 -9999.00 -9999.00 -9999.00 -9999.00 -9999.00 -9999.00 -9999.00 -9999.00 -9999.00 -9999.00 -9999.00 -9999.00 -9999.00 -9999.00 -9999.00 -9999.00 -9999.00 -9999.00 -9999.00 -9999.00 -9999.00 -9999.00 -9999.00 230.50 230.00 225.50 215.50 -9999.00 -9999.00 -9999.00 -9999.00 -9999.00 -9999.00 -9999.00 -9999.00 -9999.00 -9999.00 -9999.00 -9999.00 -9999.00 -9999.00 -9999.00 -9999.00 -9999.00 -9999.00 -9999.00 -9999.00 -9999.00 -9999.00 -9999.00 -9999.00 -9999.00
-9999.00 -9999.00 -9999.00 -9999.00 -9999.00 -9999.00 -9999.00 -9999.00 -9999.00 -9999.00 -9999.00 -9999.00 -9999.00 -9999.00 -9999.00 138.75 169.00 -9999.00 199.25 208.50 212.50 211.25 210.25 206.00 209.25 210.00 207.50 212.00 -9999.00 -9999.00 -9999.00 -9999.00 -9999.00 -9999.00 -9999.00 -9999.00 -9999.00 -9999.00 -9999.00 -9999.00 -9999.00 -9999.00 -9999.00 -9999.00 -9999.00 -9999.00 -9999.00 -9999.00 -9999.00 -9999.00 -9999.00 -9999.00 -9999.00
-9999.00 -9999.00 -9999.00 -9999.00 -9999.00 -9999.00 -9999.00 -9999.00 -9999.00 -9999.00 -9999.00 -9999.00 -9999.00 -9999.00 111.00 123.25 143.25 178.25 189.75 194.50 178.50 166.25 175.50 188.00 193.00 196.25 195.75 203.25 -9999.00 -9999.00 -9999.00 -9999.00 -9999.00 -9999.00 -9999.00 -9999.00 -9999.00 -9999.00 -9999.00 -9999.00 -9999.00 -9999.00 -9999.00 -9999.00 -9999.00 -9999.00 -9999.00 -9999.00 -9999.00 -9999.00 -9999.00 -9999.00 -9999.00
-9999.00 -9999.00 -9999.00 -9999.00 -9999.00 -9999.00 -9999.00 -9999.00 -9999.00 -9999.00 -9999.00 -9999.00 -9999.00 82.25 88.00 111.00 126.50 160.00 184.00 174.50 163.50 190.50 209.00 216.50 223.00 221.00 224.50 -9999.00 -9999.00 -9999.00 -9999.00 -9999.00 -9999.00 -9999.00 -9999.00 -9999.00 -9999.00 -9999.00 -9999.00 -9999.00 -9999.00 -9999.00 -9999.00 -9999.00 -9999.00 -9999.00 -9999.00 -9999.00 -9999.00 -9999.00 -9999.00 -9999.00 -9999.00
-9999.00 -9999.00 -9999.00 -9999.00 -9999.00 -9999.00 -9999.00 -9999.00 -9999.00 -9999.00 -9999.00 94.50 88.25 93.00 100.50 98.00 132.00 140.75 148.50 159.50 180.50 201.00 204.25 240.00 269.25 262.75 -9999.00 -9999.00 -9999.00 -9999.00 -9999.00 -9999.00 -9999.00 -9999.00 -9999.00 -9999.00 -9999.00 -9999.00 -9999.00 -9999.00 -9999.00 -9999.00 -9999.00 -9999.00 -9999.00 -9999.00 -9999.00 -9999.00 -9999.00 -9999.00 -9999.00 -9999.00 -9999.00
-9999.00 -9999.00 -9999.00 -9999.00 -9999.00 -9999.00 -9999.00 -9999.00 -9999.00 74.00 -9999.00 70.00 91.50 79.25 83.50 87.25 120.00 134.50 143.75 125.75 165.50 214.00 208.25 243.75 -9999.00 -9999.00 -9999.00 -9999.00 -9999.00 -9999.00 -9999.00 -9999.00 -9999.00 -9999.00 -9999.00 -9999.00 -9999.00 -9999.00 -9999.00 -9999.00 -9999.00 -9999.00 -9999.00 -9999.00 -9999.00 -9999.00 -9999.00 -9999.00 -9999.00 -9999.00 -9999.00 -9999.00 -9999.00
-9999.00 -9999.00 -9999.00 -9999.00 -9999.00 -9999.00 -9999.00 -9999.00 -9999.00 54.25 51.75 55.50 70.75 87.00 101.50 88.75 93.00 113.25 104.50 120.75 172.50 200.50 228.50 221.00 254.00 283.00 264.25 -9999.00 -9999.00 -9999.00 -9999.00 -9999.00 -9999.00 -9999.00 -9999.00 -9999.00 -9999.00 -9999.00 -9999.00 -9999.00 -9999.00 -9999.00 -9999.00 -9999.00 -9999.00 -9999.00 -9999.00 -9999.00 -9999.00 -9999.00 -9999.00 -9999.00 -9999.00
-9999.00 -9999.00 -9999.00 -9999.00 -9999.00 -9999.00 -9999.00 -9999.00 -9999.00 39.50 55.50 57.50 59.25 57.50 75.75 85.75 81.50 85.75 118.00 154.50 166.00 183.75 210.25 239.25 240.00 269.50 269.50 -9999.00 -9999.00 -9999.00 -9999.00 -9999.00 -9999.00 -9999.00 -9999.00 -9999.00 -9999.00 -9999.00 -9999.00 -9999.00 -9999.00 -9999.00 -9999.00 -9999.00 -9999.00 -9999.00 -9999.00 -9999.00 -9999.00 -9999.00 -9999.00 -9999.00 -9999.00
-9999.00 -9999.00 -9999.00 -9999.00 -9999.00 -9999.00 -9999.00 -9999.00 12.75 11.00 40.50 70.25 63.25 62.75 60.75 68.00 86.00 109.25 133.00 158.25 171.00 178.75 190.50 238.25 244.50 267.50 266.50 246.25 -9999.00 -9999.00 255.50 262.25 -9999.00 -9999.00 -9999.00 -9999.00 -9999.00 -9999.00 -9999.00 -9999.00 -9999.00 -9999.00 -9999.00 -9999.00 -9999.00 -9999.00 -9999.00 -9999.00 -9999.00 -9999.00 -9999.00 -9999.00 -9999.00
-9999.00 -9999.00 -9999.00 -9999.00 -9999.00 -9999.00 -9999.00 -9999.00 -9999.00 29.25 40.50 39.50 60.50 72.50 69.50 76.00 80.75 104.50 130.00 153.00 161.75 163.75 180.25 228.00 243.00 249.75 252.25 221.25 225.50 220.25 230.00 250.25 -9999.00 -9999.00 -9999.00 -9999.00 -9999.00 -9999.00 -9999.00 -9999.00 -9999.00 -9999.00 -9999.00 -9999.00 -9999.00 -9999.00 -9999.00 -9999.00 -9999.00 -9999.00 -9999.00 -9999.00 -9999.00
-9999.00 -9999.00 -9999.00 -9999.00 -9999.00 -9999.00 -9999.00 -9999.00 47.75 43.75 43.25 40.25 40.75 68.50 68.75 59.50 100.00 99.50 120.50 147.00 149.75 170.00 177.50 206.75 224.00 218.00 200.75 188.75 186.50 227.25 249.00 -9999.00 -9999.00 -9999.00 -9999.00 -9999.00 -9999.00 -9999.00 -9999.00 -9999.00 -9999.00 -9999.00 -9999.00 -9999.00 -9999.00 -9999.00 -9999.00 -9999.00 -9999.00 -9999.00 -9999.00 -9999.00 -9999.00
-9999.00 -9999.00 -9999.00 -9999.00 -9999.00 -9999.00 -9999.00 85.00 59.50 53.50 30.25 56.75 23.50 41.25 61.00 69.75 69.50 111.75 111.25 137.25 136.00 150.00 170.75 189.75 200.00 161.75 156.75 185.75 219.25 230.25 -9999.00 -9999.00 -9999.00 -9999.00 -9999.00 -9999.00 -9999.00 -9999.00 -9999.00 -9999.00 -9999.00 -9999.00 -9999.00 -9999.00 -9999.00 -9999.00 -9999.00 -9999.00 -9999.00 -9999.00 -9999.00 -9999.00 -9999.00
-9999.00 -9999.00 -9999.00 -9999.00 -9999.00 163.00 129.00 121.25 82.25 70.50 52.25 49.50 40.50 21.00 44.50 67.00 73.50 58.75 91.75 80.75 116.25 101.00 135.25 137.50 150.00 163.25 188.25 212.50 228.50 240.25 -9999.00 -9999.00 -9999.00 -9999.00 -9999.00 351.00 324.75 341.75 355.25 -9999.00 295.75 272.00 -9999.00 -9999.00 -9999.00 -9999.00 -9999.00 -9999.00 -9999.00 -9999.00 -9999.00 -9999.00 -9999.00
-9999.00 -9999.00 -9999.00 199.00 190.00 168.00 132.00 101.75 106.75 77.50 56.75 55.00 57.75 26.50 21.25 50.50 82.75 84.50 85.75 109.50 111.25 140.50 153.00 147.75 138.25 180.25 213.00 218.00 234.50 253.00 -9999.00 -9999.00 -9999.00 -9999.00 -9999.00 311.25 311.25 316.50 319.00 279.25 267.25 261.25 -9999.00 -9999.00 -9999.00 -9999.00 -9999.00 -9999.00 -9999.00 -9999.00 -9999.00 -9999.00 -9999.00
-9999.00 -9999.00 -9999.00 -9999.00 158.50 159.75 158.25 146.25 155.75 112.50 84.00 67.00 58.50 44.00 24.00 28.25 74.25 72.75 102.25 120.75 132.25 148.25 160.25 150.00 159.00 170.25 189.75 221.00 248.75 268.25 -9999.00 -9999.00 -9999.00 299.25 324.50 287.25 297.25 311.25 279.75 250.75 248.75 251.25 289.50 278.50 296.00 -9999.00 -9999.00 -9999.00 -9999.00 -9999.00 -9999.00 -9999.00 -9999.00
-9999.00 -9999.00 -9999.00 -9999.00 -9999.00 176.75 159.25 189.00 197.00 177.00 130.25 91.50 86.00 68.75 43.75 45.00 24.75 54.00 100.00 109.50 118.25 154.00 161.25 159.00 165.00 173.25 200.75 222.00 227.75 260.75 272.50 -9999.00 289.50 278.50 285.00 282.00 270.25 244.25 266.00 242.00 256.50 271.00 272.75 282.50 319.25 334.50 357.75 398.50 384.00 441.75 451.25 -9999.00 -9999.00
-9999.00 -9999.00 -9999.00 -9999.00 -9999.00 -9999.00 148.25 207.25 198.00 194.00 189.25 154.00 123.50 90.50 54.50 90.75 55.25 28.50 36.00 103.25 128.50 140.50 157.75 150.00 160.25 190.50 202.00 235.50 271.25 281.75 301.50 297.00 302.00 273.25 270.25 260.25 230.25 269.25 268.25 230.00 262.00 270.00 257.50 273.75 303.75 331.25 361.00 395.00 394.00 351.00 -9999.00 -9999.00 -9999.00
-9999.00 -9999.00 -9999.00 -9999.00 203.25 188.00 190.25 201.50 203.00 227.50 206.00 190.00 159.00 139.25 102.75 102.25 94.00 80.50 45.75 33.00 109.00 90.00 153.00 162.50 153.00 169.75 207.00 268.00 285.00 301.50 297.50 269.75 279.75 240.00 230.00 218.50 239.25 271.00 257.00 227.25 245.00 272.50 259.25 284.00 329.25 346.25 394.50 378.75 385.50 337.25 411.75 -9999.00 -9999.00
-9999.00 -9999.00 -9999.00 -9999.00 207.00 188.25 211.25 209.75 222.75 226.00 225.00 198.75 182.25 159.25 129.75 112.00 60.75 105.00 100.25 73.50 42.50 96.25 149.75 194.00 172.00 183.50 217.25 253.25 271.25 279.00 287.75 256.50 268.50 230.00 220.00 229.50 256.50 279.75 238.50 216.25 260.00 267.00 283.00 293.25 345.25 334.50 363.75 385.75 319.25 320.00 310.50 -9999.00 -9999.00
-9999.00 -9999.00 -9999.00 210.50 208.00 199.00 208.00 210.25 223.25 228.00 226.50 205.00 184.75 150.75 119.75 81.50 96.00 120.00 117.00 108.50 79.25 34.00 125.00 144.25 164.00 194.50 204.50 235.50 263.50 255.25 272.00 249.50 247.00 229.00 214.75 246.00 271.00 256.50 215.75 216.25 235.00 271.00 244.00 279.75 290.00 318.50 357.00 382.50 298.00 291.75 280.00 294.00 -9999.00
-9999.00 -9999.00 -9999.00 216.75 218.50 220.50 231.50 238.50 248.00 240.25 230.25 210.00 198.00 179.00 156.00 141.50 129.50 136.25 139.75 129.00 115.25 83.25 82.25 152.50 162.25 194.00 215.50 236.50 247.75 297.25 275.00 290.50 242.75 234.25 212.00 228.50 232.25 210.00 214.00 220.25 259.75 279.25 245.75 259.00 286.00 306.75 327.25 345.00 352.00 268.50 257.50 269.25 353.25
-9999.00 -9999.00 -9999.00 240.75 242.50 241.00 237.25 238.00 232.50 239.25 244.50 230.50 220.00 211.00 190.50 153.50 143.25 126.75 146.75 143.25 128.75 136.75 48.00 98.75 167.75 189.50 221.75 249.75 249.25 280.00 299.00 266.00 251.25 223.00 218.75 207.00 210.75 214.75 218.00 218.25 261.00 257.00 228.00 224.50 242.75 259.75 257.00 267.75 233.00 230.00 242.00 -9999.00 -9999.00
-9999.00 -9999.00 -9999.00 302.00 274.00 272.75 269.75 255.75 239.50 236.50 240.00 231.50 229.00 213.75 184.50 153.00 98.00 134.50 170.25 160.25 145.50 146.50 135.25 45.50 142.00 177.00 204.25 233.25 258.50 240.50 242.75 280.50 251.50 219.25 211.25 209.00 227.75 219.00 212.50 216.50 244.75 269.50 209.50 228.00 248.50 250.00 218.25 215.00 217.00 253.00 -9999.00 -9999.00 -9999.00
-9999.00 -9999.00 339.00 326.75 315.50 280.75 275.00 258.25 240.25 231.25 233.50 226.50 203.00 188.25 146.00 150.50 138.00 144.25 175.25 172.00 157.50 145.50 106.00 74.75 83.00 99.50 129.75 210.75 228.25 216.00 217.50 251.75 230.50 213.75 212.50 207.50 217.50 208.50 210.50 233.00 231.25 220.25 219.25 244.00 252.00 213.00 214.25 237.25 283.00 465.00 -9999.00 -9999.00 -9999.00
-9999.00 344.00 313.25 300.75 290.50 269.00 275.50 261.75 242.75 229.50 208.25 213.25 202.50 159.50 133.75 162.50 149.75 158.25 158.00 183.75 178.25 154.75 84.50 149.75 55.50 158.50 169.25 211.00 211.50 172.00 161.00 201.25 197.75 210.00 198.50 200.75 198.50 199.75 201.75 218.75 225.25 219.75 221.50 249.50 217.25 226.75 255.50 331.00 433.75 -9999.00 -9999.00 -9999.00 -9999.00
332.00 305.00 292.00 279.50 269.25 254.00 254.75 250.50 245.25 222.50 197.75 173.50 159.50 135.75 183.75 201.00 185.00 193.75 175.75 158.75 169.75 163.50 147.75 179.00 162.50 83.25 166.50 130.75 158.50 194.50 231.75 230.00 208.25 211.00 189.50 209.00 195.50 186.00 188.00 189.25 197.50 194.00 201.00 204.00 210.75 260.00 299.75 -9999.00 -9999.00 -9999.00 -9999.00 -9999.00 -9999.00
270.25 266.00 266.25 265.75 251.00 221.75 234.75 238.75 208.75 196.50 199.25 198.00 148.25 212.50 224.00 232.50 225.25 200.25 189.00 177.00 169.00 119.00 171.25 201.00 234.75 168.25 141.50 163.75 131.75 212.00 218.00 203.75 193.00 182.00 187.25 192.00 204.25 200.25 187.50 203.25 211.50 220.25 230.50 240.50 241.50 270.50 278.75 -9999.00 -9999.00 -9999.00 -9999.00 -9999.00 -9999.00
-9999.00 251.00 248.75 233.25 243.25 249.50 214.00 224.50 191.50 161.50 184.50 182.25 190.00 191.00 195.25 236.00 220.50 207.50 214.25 195.50 200.50 154.50 171.75 204.75 228.00 221.25 242.00 210.50 164.00 158.00 184.25 212.50 201.00 192.25 205.75 226.25 206.75 209.50 189.50 205.00 226.25 260.25 287.75 289.75 -9999.00 -9999.00 -9999.00 -9999.00 -9999.00 -9999.00 -9999.00 -9999.00 -9999.00
-9999.00 241.50 251.50 251.50 250.00 240.75 212.25 184.75 178.50 202.00 208.00 214.50 222.00 230.50 223.50 221.50 236.25 228.25 221.75 232.75 211.25 185.50 157.50 187.50 300.50 260.00 256.75 228.00 200.25 138.25 190.00 210.25 178.50 189.00 216.50 308.00 296.00 235.25 203.75 188.00 230.00 258.50 267.25 -9999.00 -9999.00 -9999.00 -9999.00 -9999.00 -9999.00 -9999.00 -9999.00 -9999.00 -9999.00
261.50 267.75 275.50 258.50 241.00 221.00 190.00 203.50 210.50 218.50 265.25 289.75 302.75 322.75 294.50 254.00 261.75 280.75 276.75 245.75 229.75 227.50 155.00 208.75 240.75 306.75 260.50 211.00 200.25 183.75 209.00 183.50 206.00 232.75 204.00 295.25 298.50 241.00 237.50 195.00 202.50 237.25 265.50 -9999.00 -9999.00 -9999.00 -9999.00 -9999.00 -9999.00 -9999.00 -9999.00 -9999.00 -9999.00
-9999.00 -9999.00 -9999.00 240.25 224.00 195.50 188.50 189.75 233.75 241.50 255.25 314.25 358.75 319.00 296.25 282.75 288.00 274.50 289.00 302.75 301.00 248.00 192.00 220.75 216.50 226.75 243.00 229.25 209.00 210.00 181.25 207.75 233.50 301.50 314.00 219.25 287.75 227.00 208.50 191.25 238.75 267.50 361.25 -9999.00 -9999.00 -9999.00 -9999.00 -9999.00 -9999.00 -9999.00 -9999.00 -9999.00 -9999.00
-9999.00 -9999.00 -9999.00 229.00 209.50 186.25 198.50 233.25 270.75 326.50 313.00 318.25 347.75 330.50 288.75 296.75 335.75 295.25 268.75 279.75 318.25 247.75 185.75 212.75 227.00 258.00 235.00 236.75 220.00 174.25 196.50 225.50 230.50 224.25 219.25 233.00 210.75 203.25 197.50 234.75 226.75 304.50 333.50 -9999.00 -9999.00 -9999.00 -9999.00 -9999.00 -9999.00 -9999.00 -9999.00 -9999.00 -9999.00
-9999.00 -9999.00 -9999.00 219.25 193.00 191.50 243.00 275.50 340.75 392.75 336.00 331.25 319.50 317.50 330.00 320.00 301.25 279.25 263.75 284.25 275.50 207.75 210.25 232.50 223.25 250.25 238.50 191.00 191.00 208.25 242.00 219.50 284.75 238.00 269.25 233.25 231.50 221.50 227.50 212.25 197.50 242.00 249.00 261.50 -9999.00 -9999.00 -9999.00 -9999.00 -9999.00 -9999.00 -9999.00 -9999.00 -9999.00
-9999.00 -9999.00 213.25 199.50 208.00 207.50 221.25 276.00 353.50 409.75 411.75 379.00 351.25 373.50 365.25 319.75 318.75 326.00 283.00 284.25 219.25 231.25 227.50 216.00 213.00 248.75 229.50 181.25 185.25 239.50 274.75 268.00 335.50 251.00 256.25 267.75 284.50 294.50 266.50 229.50 230.25 196.50 197.75 205.00 -9999.00 -9999.00 -9999.00 -9999.00 -9999.00 -9999.00 -9999.00 -9999.00 -9999.00
-9999.00 -9999.00 218.75 259.00 277.75 248.75 214.50 291.25 440.75 406.75 396.25 455.75 418.75 375.00 359.75 353.00 360.25 322.25 328.25 268.00 272.50 230.00 220.25 215.25 210.00 213.00 190.50 177.25 200.25 254.25 283.00 333.50 274.00 292.25 295.25 399.75 474.50 353.25 294.00 245.50 219.25 209.00 200.50 -9999.00 -9999.00 -9999.00 -9999.00 -9999.00 -9999.00 -9999.00 -9999.00 -9999.00 -9999.00
277.25 259.75 263.00 295.50 313.00 268.75 270.00 267.00 343.25 352.50 354.75 432.25 -9999.00 410.00 359.00 401.00 396.50 305.50 282.50 271.75 270.75 267.50 248.50 234.75 200.25 199.00 205.25 179.75 256.00 267.00 300.50 331.75 381.75 375.00 478.50 508.50 657.00 581.75 370.75 235.75 246.50 201.25 203.25 -9999.00 -9999.00 -9999.00 -9999.00 -9999.00 -9999.00 -9999.00 -9999.00 -9999.00 -9999.00
300.25 270.00 306.75 281.50 279.75 320.50 331.50 302.25 270.50 340.25 389.25 -9999.00 -9999.00 -9999.00 446.50 463.25 345.25 328.00 348.50 309.25 311.25 284.00 243.75 232.50 244.50 229.25 199.00 205.75 280.00 302.25 320.25 334.75 301.25 293.25 324.00 334.00 380.25 343.50 248.75 221.50 203.00 263.50 230.00 215.50 317.50 -9999.00 -9999.00 -9999.00 -9999.00 -9999.00 -9999.00 -9999.00 -9999.00
319.75 327.25 301.75 290.50 313.25 -9999.00 -9999.00 412.00 -9999.00 -9999.00 -9999.00 -9999.00 -9999.00 -9999.00 489.75 395.50 366.25 434.75 377.00 321.00 314.50 290.75 286.25 246.00 231.75 193.25 200.50 235.50 304.50 388.25 384.25 311.00 275.50 260.25 249.25 260.75 271.00 265.00 229.75 211.25 211.25 261.25 304.25 307.75 256.25 -9999.00 -9999.00 -9999.00 -9999.00 -9999.00 -9999.00 -9999.00 -9999.00
-9999.00 363.25 -9999.00 -9999.00 -9999.00 -9999.00 -9999.00 -9999.00 -9999.00 -9999.00 -9999.00 -9999.00 -9999.00 -9999.00 -9999.00 -9999.00 397.00 388.25 306.75 396.00 397.00 370.25 309.75 260.50 187.75 214.75 266.75 257.00 377.25 324.25 312.00 373.00 331.50 281.25 292.00 299.25 233.00 218.75 212.50 222.75 271.25 381.75 436.00 366.25 296.50 394.75 536.25 -9999.00 -9999.00 -9999.00 -9999.00 -9999.00 -9999.00
-9999.00 -9999.00 -9999.00 -9999.00 -9999.00 -9999.00 -9999.00 -9999.00 -9999.00 -9999.00 -9999.00 -9999.00 -9999.00 -9999.00 -9999.00 370.50 352.50 366.25 336.75 418.00 407.75 400.50 325.25 223.75 201.75 246.75 331.75 261.00 330.75 356.25 291.50 274.25 281.75 279.00 334.50 465.50 277.00 222.75 218.75 236.50 358.00 460.00 351.25 311.50 330.00 485.00 547.50 -9999.00 -9999.00 -9999.00 -9999.00 -9999.00 -9999.00
-9999.00 -9999.00 -9999.00 -9999.00 -9999.00 -9999.00 -9999.00 -9999.00 -9999.00 -9999.00 -9999.00 -9999.00 -9999.00 -9999.00 -9999.00 -9999.00 -9999.00 443.00 267.75 334.75 323.00 286.50 259.50 195.00 241.75 336.25 325.00 284.50 318.25 309.50 303.25 317.75 336.75 249.00 267.00 406.25 236.00 219.25 424.75 295.25 358.50 404.50 423.25 410.75 378.00 574.75 -9999.00 -9999.00 -9999.00 -9999.00 -9999.00 -9999.00 -9999.00
-9999.00 -9999.00 -9999.00 -9999.00 -9999.00 -9999.00 -9999.00 -9999.00 -9999.00 -9999.00 -9999.00 -9999.00 -9999.00 -9999.00 -9999.00 -9999.00 -9999.00 321.50 336.75 256.00 300.75 268.25 203.50 244.50 264.25 357.50 333.50 297.75 312.25 338.00 333.25 335.00 298.75 327.50 283.50 236.00 292.75 351.50 295.50 350.00 329.25 381.00 471.25 504.50 333.25 528.00 -9999.00 -9999.00 -9999.00 -9999.00 -9999.00 -9999.00 -9999.00
-9999.00 -9999.00 -9999.00 -9999.00 -9999.00 -9999.00 -9999.00 -9999.00 -9999.00 -9999.00 -9999.00 -9999.00 -9999.00 -9999.00 -9999.00 -9999.00 318.75 327.50 326.50 284.50 250.25 234.50 218.75 318.00 289.00 322.25 352.75 285.25 299.75 313.75 314.50 279.00 299.00 275.25 305.00 218.25 259.75 390.75 356.50 380.25 391.25 451.00 397.00 570.25 343.50 439.00 563.75 -9999.00 -9999.00 -9999.00 -9999.00 -9999.00 -9999.00
-9999.00 -9999.00 -9999.00 -9999.00 -9999.00 -9999.00 -9999.00 -9999.00 -9999.00 -9999.00 -9999.00 -9999.00 -9999.00 -9999.00 -9999.00 376.50 380.25 433.00 318.00 321.75 255.00 271.50 250.25 216.00 309.75 311.25 280.50 277.75 261.25 269.00 285.25 288.25 269.00 305.25 242.25 239.25 293.00 285.25 380.00 421.25 486.50 415.25 542.50 576.25 453.50 426.50 454.75 -9999.00 -9999.00 -9999.00 -9999.00 -9999.00 -9999.00
-9999.00 -9999.00 -9999.00 -9999.00 -9999.00 -9999.00 -9999.00 -9999.00 -9999.00 -9999.00 -9999.00 -9999.00 -9999.00 -9999.00 506.75 389.75 440.50 392.75 361.50 299.25 321.00 303.50 260.00 245.25 283.25 313.50 302.00 275.25 286.25 255.50 285.50 308.25 243.50 253.00 225.25 352.75 369.50 351.00 310.00 314.00 482.00 537.00 508.25 446.50 511.75 523.50 -9999.00 -9999.00 -9999.00 -9999.00 -9999.00 -9999.00 -9999.00
-9999.00 -9999.00 -9999.00 -9999.00 -9999.00 -9999.00 -9999.00 -9999.00 -9999.00 -9999.00 -9999.00 -9999.00 -9999.00 -9999.00 452.00 425.75 431.75 368.25 321.00 371.25 375.00 318.00 288.25 257.00 283.75 365.00 330.50 298.75 303.25 300.75 248.50 372.25 238.75 301.00 227.00 287.50 338.25 445.00 466.75 453.00 463.75 550.25 401.25 463.75 459.00 598.50 -9999.00 -9999.00 -9999.00 -9999.00 -9999.00 -9999.00 -9999.00
-9999.00 -9999.00 -9999.00 -9999.00 -9999.00 -9999.00 -9999.00 -9999.00 -9999.00 -9999.00 -9999.00 -9999.00 -9999.00 -9999.00 377.75 358.75 428.50 361.75 413.25 340.00 321.25 380.00 360.75 302.25 257.00 378.75 312.00 402.50 303.50 256.50 289.75 244.00 244.25 345.00 234.00 331.50 456.50 464.75 332.75 415.25 426.00 436.25 335.75 409.50 489.00 582.50 -9999.00 -9999.00 -9999.00 -9999.00 -9999.00 -9999.00 -9999.00
-9999.00 -9999.00 -9999.00 -9999.00 -9999.00 -9999.00 -9999.00 -9999.00 -9999.00 -9999.00 -9999.00 -9999.00 -9999.00 -9999.00 422.75 421.25 361.25 340.75 339.50 353.00 337.00 346.25 331.75 408.00 271.75 272.50 267.25 316.50 251.50 416.25 367.75 391.75 379.00 285.50 259.00 455.50 350.25 268.50 285.50 306.75 293.50 325.00 406.25 467.75 493.25 -9999.00 -9999.00 -9999.00 -9999.00 -9999.00 -9999.00 -9999.00 -9999.00
-9999.00 -9999.00 -9999.00 -9999.00 -9999.00 -9999.00 -9999.00 -9999.00 -9999.00 -9999.00 -9999.00 -9999.00 -9999.00 -9999.00 439.75 397.50 433.50 400.25 349.75 472.25 391.00 309.75 306.75 352.25 318.25 280.75 260.00 285.75 290.25 312.50 424.50 426.50 272.25 335.00 247.75 273.50 254.50 267.25 359.50 383.00 429.00 408.00 329.00 396.50 453.75 -9999.00 -9999.00 -9999.00 -9999.00 -9999.00 -9999.00 -9999.00 -9999.00
-9999.00 -9999.00 -9999.00 -9999.00 -9999.00 -9999.00 -9999.00 -9999.00 -9999.00 -9999.00 -9999.00 -9999.00 -9999.00 -9999.00 -9999.00 -9999.00 -9999.00 431.50 -9999.00 399.00 334.25 320.25 316.00 297.00 277.50 290.50 357.00 272.25 315.50 378.75 342.50 317.00 316.00 313.50 299.25 271.75 279.25 266.00 368.75 294.00 314.00 404.50 471.00 425.25 449.00 -9999.00 -9999.00 -9999.00 -9999.00 -9999.00 -9999.00 -9999.00 -9999.00
-9999.00 -9999.00 -9999.00 -9999.00 -9999.00 -9999.00 -9999.00 -9999.00 -9999.00 -9999.00 -9999.00 -9999.00 -9999.00 -9999.00 -9999.00 -9999.00 -9999.00 -9999.00 -9999.00 -9999.00 -9999.00 -9999.00 -9999.00 -9999.00 -9999.00 -9999.00 356.00 329.25 378.25 418.75 301.25 382.25 477.00 348.50 415.25 406.75 346.25 257.00 293.50 428.00 322.25 368.50 435.00 462.25 -9999.00 -9999.00 -9999.00 -9999.00 -9999.00 -9999.00 -9999.00 -9999.00 -9999.00
-9999.00 -9999.00 -9999.00 -9999.00 -9999.00 -9999.00 -9999.00 -9999.00 -9999.00 -9999.00 -9999.00 -9999.00 -9999.00 -9999.00 -9999.00 -9999.00 -9999.00 -9999.00 -9999.00 -9999.00 -9999.00 -9999.00 -9999.00 -9999.00 -9999.00 -9999.00 310.00 371.25 374.75 442.75 415.00 417.25 489.25 451.00 470.00 335.00 272.00 287.50 351.00 460.00 414.50 437.25 363.00 467.75 -9999.00 -9999.00 -9999.00 -9999.00 -9999.00 -9999.00 -9999.00 -9999.00 -9999.00
-9999.00 -9999.00 -9999.00 -9999.00 -9999.00 -9999.00 -9999.00 -9999.00 -9999.00 -9999.00 -9999.00 -9999.00 -9999.00 -9999.00 -9999.00 -9999.00 -9999.00 -9999.00 -9999.00 -9999.00 -9999.00 -9999.00 -9999.00 -9999.00 -9999.00 -9999.00 352.00 381.50 468.50 380.25 375.75 518.75 414.75 394.00 309.00 309.50 266.00 376.25 472.00 415.25 489.25 499.00 412.25 507.75 -9999.00 -9999.00 -9999.00 -9999.00 -9999.00 -9999.00 -9999.00 -9999.00 -9999.00
-9999.00 -9999.00 -9999.00 -9999.00 -9999.00 -9999.00 -9999.00 -9999.00 -9999.00 -9999.00 -9999.00 -9999.00 -9999.00 -9999.00 -9999.00 -9999.00 -9999.00 -9999.00 -9999.00 -9999.00 -9999.00 -9999.00 -9999.00 -9999.00 -9999.00 -9999.00 415.25 393.25 393.00 346.50 510.50 423.00 411.75 400.50 365.75 333.00 310.25 290.00 307.25 346.00 377.25 -9999.00 -9999.00 -9999.00 -9999.00 -9999.00 -9999.00 -9999.00 -9999.00 -9999.00 -9999.00 -9999.00 -9999.00
-9999.00 -9999.00 -9999.00 -9999.00 -9999.00 -9999.00 -9999.00 -9999.00 -9999.00 -9999.00 -9999.00 -9999.00 -9999.00 -9999.00 -9999.00 -9999.00 -9999.00 -9999.00 -9999.00 -9999.00 -9999.00 -9999.00 -9999.00 -9999.00 -9999.00 -9999.00 -9999.00 480.00 491.25 386.25 470.25 422.25 389.00 372.00 564.50 438.00 315.75 270.75 360.75 307.50 310.75 -9999.00 -9999.00 -9999.00 -9999.00 -9999.00 -9999.00 -9999.00 -9999.00 -9999.00 -9999.00 -9999.00 -9999.00
-9999.00 -9999.00 -9999.00 -9999.00 -9999.00 -9999.00 -9999.00 -9999.00 -9999.00 -9999.00 -9999.00 -9999.00 -9999.00 -9999.00 -9999.00 -9999.00 -9999.00 -9999.00 -9999.00 -9999.00 -9999.00 -9999.00 -9999.00 -9999.00 -9999.00 -9999.00 -9999.00 -9999.00 431.75 412.00 449.25 521.25 452.50 567.50 506.50 403.50 276.00 299.75 367.25 422.00 -9999.00 -9999.00 -9999.00 -9999.00 -9999.00 -9999.00 -9999.00 -9999.00 -9999.00 -9999.00 -9999.00 -9999.00 -9999.00
-9999.00 -9999.00 -9999.00 -9999.00 -9999.00 -9999.00 -9999.00 -9999.00 -9999.00 -9999.00 -9999.00 -9999.00 -9999.00 -9999.00 -9999.00 -9999.00 -9999.00 -9999.00 -9999.00 -9999.00 -9999.00 -9999.00 -9999.00 -9999.00 -9999.00 -9999.00 -9999.00 -9999.00 -9999.00 501.75 451.75 441.50 631.75 533.50 343.75 390.50 274.75 311.25 390.50 -9999.00 -9999.00 -9999.00 -9999.00 -9999.00 -9999.00 -9999.00 -9999.00 -9999.00 -9999.00 -9999.00 -9999.00 -9999.00 -9999.00
-9999.00 -9999.00 -9999.00 -9999.00 -9999.00 -9999.00 -9999.00 -9999.00 -9999.00 -9999.00 -9999.00 -9999.00 -9999.00 -9999.00 -9999.00 -9999.00 -9999.00 -9999.00 -9999.00 -9999.00 -9999.00 -9999.00 -9999.00 -9999.00 -9999.00 -9999.00 -9999.00 -9999.00 -9999.00 528.25 540.00 676.50 467.25 367.75 355.75 305.25 293.25 368.25 368.50 469.75 -9999.00 -9999.00 -9999.00 -9999.00 -9999.00 -9999.00 -9999.00 -9999.00 -9999.00 -9999.00 -9999.00 -9999.00 -9999.00
-9999.00 -9999.00 -9999.00 -9999.00 -9999.00 -9999.00 -9999.00 -9999.00 -9999.00 -9999.00 -9999.00 -9999.00 -9999.00 -9999.00 -9999.00 -9999.00 -9999.00 -9999.00 -9999.00 -9999.00 -9999.00 -9999.00 -9999.00 -9999.00 -9999.00 -9999.00 -9999.00 -9999.00 -9999.00 -9999.00 673.00 521.25 505.00 518.25 421.75 289.25 313.50 307.25 410.50 435.00 431.25 -9999.00 -9999.00 -9999.00 -9999.00 -9999.00 -9999.00 -9999.00 -9999.00 -9999.00 -9999.00 -9999.00 -9999.00
-9999.00 -9999.00 -9999.00 -9999.00 -9999.00 -9999.00 -9999.00 -9999.00 -9999.00 -9999.00 -9999.00 -9999.00 -9999.00 -9999.00 -9999.00 -9999.00 -9999.00 -9999.00 -9999.00 -9999.00 -9999.00 -9999.00 -9999.00 -9999.00 -9999.00 -9999.00 -9999.00 -9999.00 -9999.00 -9999.00 599.75 488.00 426.75 414.50 338.25 361.00 311.50 319.00 383.50 399.50 451.25 -9999.00 -9999.00 -9999.00 -9999.00 -9999.00 -9999.00 -9999.00 -9999.00 -9999.00 -9999.00 -9999.00 -9999.00
-9999.00 -9999.00 -9999.00 -9999.00 -9999.00 -9999.00 -9999.00 -9999.00 -9999.00 -9999.00 -9999.00 -9999.00 -9999.00 -9999.00 -9999.00 -9999.00 -9999.00 -9999.00 -9999.00 -9999.00 -9999.00 -9999.00 -9999.00 -9999.00 -9999.00 -9999.00 -9999.00 -9999.00 -9999.00 -9999.00 -9999.00 494.50 375.75 408.25 309.75 400.00 327.75 305.00 308.75 443.25 463.25 -9999.00 -9999.00 -9999.00 -9999.00 -9999.00 -9999.00 -9999.00 -9999.00 -9999.00 -9999.00 -9999.00 -9999.00
-9999.00 -9999.00 -9999.00 -9999.00 -9999.00 -9999.00 -9999.00 -9999.00 -9999.00 -9999.00 -9999.00 -9999.00 -9999.00 -9999.00 -9999.00 -9999.00 -9999.00 -9999.00 -9999.00 -9999.00 -9999.00 -9999.00 -9999.00 -9999.00 -9999.00 -9999.00 -9999.00 -9999.00 -9999.00 -9999.00 -9999.00 -9999.00 351.75 354.25 433.50 445.50 403.50 392.25 344.50 346.25 426.75 -9999.00 -9999.00 -9999.00 -9999.00 -9999.00 -9999.00 -9999.00 -9999.00 -9999.00 -9999.00 -9999.00 -9999.00
-9999.00 -9999.00 -9999.00 -9999.00 -9999.00 -9999.00 -9999.00 -9999.00 -9999.00 -9999.00 -9999.00 -9999.00 -9999.00 -9999.00 -9999.00 -9999.00 -9999.00 -9999.00 -9999.00 -9999.00 -9999.00 -9999.00 -9999.00 -9999.00 -9999.00 -9999.00 -9999.00 -9999.00 -9999.00 -9999.00 -9999.00 -9999.00 496.50 362.50 485.75 638.50 460.75 383.25 344.00 353.50 402.00 -9999.00 -9999.00 -9999.00 -9999.00 -9999.00 -9999.00 -9999.00 -9999.00 -9999.00 -9999.00 -9999.00 -9999.00
-9999.00 -9999.00 -9999.00 -9999.00 -9999.00 -9999.00 -9999.00 -9999.00 -9999.00 -9999.00 -9999.00 -9999.00 -9999.00 -9999.00 -9999.00 -9999.00 -9999.00 -9999.00 -9999.00 -9999.00 -9999.00 -9999.00 -9999.00 -9999.00 -9999.00 -9999.00 -9999.00 -9999.00 -9999.00 -9999.00 -9999.00 -9999.00 594.50 388.75 570.25 505.00 494.50 390.75 357.25 385.75 399.00 -9999.00 -9999.00 -9999.00 -9999.00 -9999.00 -9999.00 -9999.00 -9999.00 -9999.00 -9999.00 -9999.00 -9999.00
-9999.00 -9999.00 -9999.00 -9999.00 -9999.00 -9999.00 -9999.00 -9999.00 -9999.00 -9999.00 -9999.00 -9999.00 -9999.00 -9999.00 -9999.00 -9999.00 -9999.00 -9999.00 -9999.00 -9999.00 -9999.00 -9999.00 -9999.00 -9999.00 -9999.00 -9999.00 -9999.00 -9999.00 -9999.00 -9999.00 -9999.00 -9999.00 519.75 467.25 613.25 636.50 517.75 350.75 369.50 461.25 477.75 440.25 -9999.00 -9999.00 -9999.00 -9999.00 -9999.00 -9999.00 -9999.00 -9999.00 -9999.00 -9999.00 -9999.00
-9999.00 -9999.00 -9999.00 -9999.00 -9999.00 -9999.00 -9999.00 -9999.00 -9999.00 -9999.00 -9999.00 -9999.00 -9999.00 -9999.00 -9999.00 -9999.00 -9999.00 -9999.00 -9999.00 -9999.00 -9999.00 -9999.00 -9999.00 -9999.00 -9999.00 -9999.00 -9999.00 -9999.00 -9999.00 -9999.00 -9999.00 -9999.00 -9999.00 555.50 608.00 468.00 532.75 375.75 426.75 508.00 496.50 -9999.00 -9999.00 -9999.00 -9999.00 -9999.00 -9999.00 -9999.00 -9999.00 -9999.00 -9999.00 -9999.00 -9999.00
-9999.00 -9999.00 -9999.00 -9999.00 -9999.00 -9999.00 -9999.00 -9999.00 -9999.00 -9999.00 -9999.00 -9999.00 -9999.00 -9999.00 -9999.00 -9999.00 -9999.00 -9999.00 -9999.00 -9999.00 -9999.00 -9999.00 -9999.00 -9999.00 -9999.00 -9999.00 -9999.00 -9999.00 -9999.00 -9999.00 -9999.00 -9999.00 -9999.00 641.00 530.50 606.50 532.25 387.50 505.25 436.00 -9999.00 -9999.00 -9999.00 -9999.00 -9999.00 -9999.00 -9999.00 -9999.00 -9999.00 -9999.00 -9999.00 -9999.00 -9999.00
-9999.00 -9999.00 -9999.00 -9999.00 -9999.00 -9999.00 -9999.00 -9999.00 -9999.00 -9999.00 -9999.00 -9999.00 -9999.00 -9999.00 -9999.00 -9999.00 -9999.00 -9999.00 -9999.00 -9999.00 -9999.00 -9999.00 -9999.00 -9999.00 -9999.00 -9999.00 -9999.00 -9999.00 -9999.00 -9999.00 -9999.00 -9999.00 -9999.00 -9999.00 -9999.00 565.00 494.50 448.00 550.00 453.00 -9999.00 -9999.00 -9999.00 -9999.00 -9999.00 -9999.00 -9999.00 -9999.00 -9999.00 -9999.00 -9999.00 -9999.00 -9999.00
-9999.00 -9999.00 -9999.00 -9999.00 -9999.00 -9999.00 -9999.00 -9999.00 -9999.00 -9999.00 -9999.00 -9999.00 -9999.00 -9999.00 -9999.00 -9999.00 -9999.00 -9999.00 -9999.00 -9999.00 -9999.00 -9999.00 -9999.00 -9999.00 -9999.00 -9999.00 -9999.00 -9999.00 -9999.00 -9999.00 -9999.00 -9999.00 -9999.00 -9999.00 -9999.00 553.00 540.50 501.75 -9999.00 499.50 523.25 -9999.00 -9999.00 -9999.00 -9999.00 -9999.00 -9999.00 -9999.00 -9999.00 -9999.00 -9999.00 -9999.00 -9999.00
